VERSION 0.7
FIELDS x y z
SIZE 4 4 4
TYPE F F F
COUNT 1 1 1
WIDTH 916
HEIGHT 1
VIEWPOINT 0.0 0.0 0.0 1.0 0.0 0.0 0.0
POINTS 916
DATA ascii
3.3764598846e+01 -1.5716679573e+01 5.1152749062e+00
3.3764598846e+01 -1.6479473114e+01 5.1603622437e+00
3.3869747162e+01 -1.6788887024e+01 5.1920800209e+00
3.3820583344e+01 -1.7023828506e+01 5.2004489899e+00
3.3869735718e+01 -1.7309862137e+01 5.2242541313e+00
3.3869735718e+01 -1.7837421417e+01 5.2576227188e+00
3.3869735718e+01 -1.8103750229e+01 5.2747635841e+00
3.3764579773e+01 -1.8583827972e+01 5.2935156822e+00
3.3764579773e+01 -1.9127401352e+01 5.3299078941e+00
3.3764560699e+01 -2.0237714767e+01 5.4067087173e+00
3.3820556641e+01 -2.0839628220e+01 5.4562177658e+00
3.3869716644e+01 -2.1157752991e+01 5.4849834442e+00
3.3830966949e+01 -2.1423242569e+01 5.4998631477e+00
3.3869716644e+01 -2.1740077972e+01 5.5277733803e+00
3.3712764740e+01 -2.1932558060e+01 5.5240178108e+00
3.3764560699e+01 -2.2861679077e+01 5.6005234718e+00
2.0804393291e+00 -1.4652148485e+00 3.4949836135e-01
2.0682811737e+00 -1.4757226706e+00 3.4897008538e-01
2.0614354610e+00 -1.4900194407e+00 3.4935036302e-01
1.7741239548e+01 -1.3157793045e+01 3.0337345600e+00
1.7198095322e+01 -1.2919296265e+01 2.9543430805e+00
1.6927246094e+01 -1.3043828011e+01 2.9351048470e+00
1.6723905563e+01 -1.3051464081e+01 2.9136769772e+00
6.8287105560e+00 -5.3969140053e+00 1.1954611540e+00
6.8164548874e+00 -5.4555077553e+00 1.1991525888e+00
6.4124412537e+00 -5.2625584602e+00 1.1393545866e+00
6.4158787727e+00 -5.3316016197e+00 1.1457573175e+00
6.4193553925e+00 -5.4014062881e+00 1.1522747278e+00
6.4228610992e+00 -5.4720311165e+00 1.1589088440e+00
6.4299607277e+00 -5.6157031059e+00 1.1725381613e+00
6.2589159012e+00 -5.6032028198e+00 1.1538016796e+00
6.1960253716e+00 -5.8991208076e+00 1.1750264168e+00
1.5023632050e+00 -1.4480468035e+00 2.8659024835e-01
1.4734765291e+00 -1.4555077553e+00 2.8446561098e-01
1.4501659870e+00 -1.4862109423e+00 2.8520113230e-01
1.4481933117e+00 -1.5025390387e+00 2.8662046790e-01
1.3842246056e+01 -1.4538964272e+01 2.7572014332e+00
1.3296435356e+01 -1.4490663528e+01 2.7011592388e+00
1.3174160004e+01 -1.4535449028e+01 2.6943869591e+00
1.3017861366e+01 -1.4541308403e+01 2.6806185246e+00
1.2676249504e+01 -1.4514277458e+01 2.6467719078e+00
1.2605429649e+01 -1.4613203049e+01 2.6506357193e+00
1.2305380821e+01 -1.4624452591e+01 2.6250910759e+00
1.2157509804e+01 -1.4630000114e+01 2.6126468182e+00
1.2011025429e+01 -1.4635487556e+01 2.6004171371e+00
1.1865907669e+01 -1.4640936852e+01 2.5883986950e+00
1.1722119331e+01 -1.4646327972e+01 2.5765891075e+00
1.1395625114e+01 -1.4602168083e+01 2.5440244675e+00
1.1256181717e+01 -1.4607401848e+01 2.5328559875e+00
9.9951953888e+00 -1.3476952553e+01 2.3045473099e+00
9.6443157196e+00 -1.3343007088e+01 2.2612316608e+00
9.4240131378e+00 -1.3208164215e+01 2.2285397053e+00
9.2670602798e+00 -1.3331211090e+01 2.2299423218e+00
9.0149898529e+00 -1.3314296722e+01 2.2084574699e+00
8.6123924255e+00 -1.3238203049e+01 2.1691474915e+00
8.4583587646e+00 -1.3357187271e+01 2.1714763641e+00
8.3735256195e+00 -1.3404511452e+01 2.1707727909e+00
8.2887496948e+00 -1.3451777458e+01 2.1701514721e+00
8.2040233612e+00 -1.3499042511e+01 2.1696133614e+00
8.0973339081e+00 -1.3509570122e+01 2.1632812023e+00
8.0999898911e+00 -1.3704003334e+01 2.1864125729e+00
7.7938475609e+00 -1.4160488129e+01 2.2200365067e+00
7.6075878143e+00 -1.4232811928e+01 2.2165730000e+00
7.4172458649e+00 -1.4513105392e+01 2.2385802269e+00
7.3052730560e+00 -1.4513105392e+01 2.2316246033e+00
6.9734764099e+00 -1.4513105392e+01 2.2115089893e+00
6.8641796112e+00 -1.4513105392e+01 2.2050476074e+00
6.7555174828e+00 -1.4513105392e+01 2.1987080574e+00
6.6474704742e+00 -1.4513085365e+01 2.1924884319e+00
6.4332027435e+00 -1.4513085365e+01 2.1803958416e+00
6.3269529343e+00 -1.4513085365e+01 2.1745221615e+00
6.2212595940e+00 -1.4513085365e+01 2.1687614918e+00
5.9737596512e+00 -1.4421953201e+01 2.1440334320e+00
5.8934469223e+00 -1.4478710175e+01 2.1470472813e+00
5.8274607658e+00 -1.4572010994e+01 2.1555361748e+00
5.8274707794e+00 -1.5107128143e+01 2.2239513397e+00
5.7720994949e+00 -1.5241464615e+01 2.2384727001e+00
5.6654100418e+00 -1.5241464615e+01 2.2333230972e+00
5.3482227325e+00 -1.5241464615e+01 2.2185211182e+00
5.2434082031e+00 -1.5241464615e+01 2.2137916088e+00
4.9315819740e+00 -1.5241464615e+01 2.2002317905e+00
4.6234469414e+00 -1.5241444588e+01 2.1875751019e+00
4.5215039253e+00 -1.5241444588e+01 2.1835486889e+00
4.3506054878e+00 -1.5353964806e+01 2.1918549538e+00
4.1477637291e+00 -1.5353964806e+01 2.1844241619e+00
4.0468358994e+00 -1.5353964806e+01 2.1808476448e+00
3.9462499619e+00 -1.5353964806e+01 2.1773686409e+00
3.8459765911e+00 -1.5353964806e+01 2.1739816666e+00
3.7460057735e+00 -1.5353964806e+01 2.1706833839e+00
3.4478514194e+00 -1.5353944778e+01 2.1613450050e+00
3.0540916920e+00 -1.5353944778e+01 2.1501414776e+00
9.1523432732e-01 -4.9157028198e+00 6.8676412106e-01
8.8622069359e-01 -4.9277343750e+00 6.8767040968e-01
8.6106443405e-01 -4.9624414444e+00 6.9176459312e-01
2.4704687595e+00 -1.5353925705e+01 2.1359486580e+00
2.3739159107e+00 -1.5353925705e+01 2.1338832378e+00
2.1653611660e+00 -1.5241405487e+01 2.1143922806e+00
2.0700292587e+00 -1.5241405487e+01 2.1125884056e+00
1.9748632908e+00 -1.5241405487e+01 2.1108696461e+00
1.7849804163e+00 -1.5241405487e+01 2.1076753139e+00
1.6902440786e+00 -1.5241405487e+01 2.1062018871e+00
1.5011522770e+00 -1.5241405487e+01 2.1034975052e+00
1.3125195503e+00 -1.5241366386e+01 2.1011166573e+00
1.2183495760e+00 -1.5241366386e+01 2.1000435352e+00
1.0302832127e+00 -1.5241366386e+01 2.0981426239e+00
9.3637692928e-01 -1.5241366386e+01 2.0973122120e+00
5.3455078602e-01 -1.4512988091e+01 1.9946748018e+00
3.5627928376e-01 -1.4512988091e+01 1.9939243793e+00
2.6718750596e-01 -1.4512988091e+01 1.9936617613e+00
9.7656247817e-06 -1.4512948990e+01 1.9933233261e+00
-8.9042969048e-02 -1.4512948990e+01 1.9933596849e+00
-2.6716795564e-01 -1.4512948990e+01 1.9936590195e+00
-5.3453123569e-01 -1.4512948990e+01 1.9946706295e+00
-6.2373048067e-01 -1.4512948990e+01 1.9951608181e+00
-9.7487300634e-01 -1.4421796799e+01 1.9853194952e+00
-1.0705077648e+00 -1.4512578011e+01 1.9986830950e+00
-5.1641111374e+00 -3.4813747406e+01 4.8339076042e+00
-2.5308203697e+00 -6.0054879189e+00 8.9509022236e-01
-2.6189646721e+00 -6.1096091270e+00 9.1298609972e-01
-2.9059472084e+00 -6.4486131668e+00 9.7147697210e-01
-3.0099511147e+00 -6.5714840889e+00 9.9274986982e-01
-3.1186327934e+00 -6.6998825073e+00 1.0150197744e+00
-2.1902767181e+01 -4.3513378143e+01 6.6908864975e+00
-2.2238437653e+01 -4.3513378143e+01 6.7117438316e+00
-2.2916185379e+01 -4.3513359070e+01 6.7546038628e+00
-2.3596899033e+01 -2.6035175323e+01 4.8260540962e+00
-2.3596899033e+01 -2.5716308594e+01 4.7936878204e+00
-2.3596899033e+01 -2.5401659012e+01 4.7619366646e+00
-2.3596899033e+01 -2.5091112137e+01 4.7307834625e+00
-2.3596902847e+01 -2.4482049942e+01 4.6701922417e+00
-2.3596902847e+01 -2.4183340073e+01 4.6407399178e+00
-2.3596902847e+01 -2.3888299942e+01 4.6118221283e+00
-2.3596902847e+01 -2.3596933365e+01 4.5834393501e+00
-2.3596899033e+01 -2.3309101105e+01 4.5555725098e+00
-2.3596899033e+01 -2.3024745941e+01 4.5282068253e+00
-2.3596899033e+01 -2.2743768692e+01 4.5013427734e+00
-2.3596899033e+01 -2.2466152191e+01 4.4749665260e+00
-2.3596899033e+01 -2.2191719055e+01 4.4490494728e+00
-2.3596902847e+01 -2.1652206421e+01 4.3986301422e+00
-2.1540340424e+01 -1.8812538147e+01 3.9280018806e+00
-2.1540340424e+01 -1.8580801010e+01 3.9071340561e+00
-2.1546815872e+01 -1.7905389786e+01 3.8478646278e+00
-2.1765096664e+01 -1.7639783859e+01 3.8478920460e+00
-2.1872968674e+01 -1.7505956650e+01 3.8479049206e+00
-2.1734823227e+01 -1.6962030411e+01 3.7866952419e+00
-2.2061870575e+01 -1.7000469208e+01 3.8254253864e+00
-2.2392934799e+01 -1.7037616730e+01 3.8646323681e+00
-2.4457832336e+01 -1.7225175858e+01 4.1087217331e+00
-2.5779203415e+01 -1.7225135803e+01 4.2583837509e+00
-2.6124774933e+01 -1.7225116730e+01 4.2979245186e+00
-2.7201316833e+01 -1.7225097656e+01 4.4221181870e+00
-2.9142202377e+01 -1.7225038528e+01 4.6495165825e+00
-2.9554697037e+01 -1.7225000381e+01 4.6983771324e+00
-3.0406307220e+01 -1.7224979401e+01 4.7997913361e+00
-3.0757537842e+01 -1.7175506592e+01 4.8385062218e+00
-3.0757528305e+01 -1.6440254211e+01 4.7900824547e+00
-3.0757524490e+01 -1.6198377609e+01 4.7745151520e+00
-3.0757524490e+01 -1.5719316483e+01 4.7442059517e+00
-3.0757524490e+01 -1.5482030869e+01 4.7294683456e+00
-3.0757513046e+01 -1.4547225952e+01 4.6731467247e+00
-3.0757513046e+01 -1.4316972733e+01 4.6597118378e+00
-3.0757509232e+01 -1.4087987900e+01 4.6465272903e+00
-3.1545721054e+01 -1.3752324104e+01 4.7265629768e+00
-3.4023445129e+01 -1.4338202477e+01 5.0710477829e+00
-3.4613777161e+01 -1.4089296341e+01 5.1328759193e+00
-3.5036304474e+01 -1.4011308670e+01 5.1826844215e+00
-3.5036304474e+01 -1.3762557983e+01 5.1700983047e+00
-3.6313060760e+01 -1.3752167702e+01 5.3331995010e+00
-3.7802822113e+01 -1.3788319588e+01 5.5267229080e+00
-3.7969173431e+01 -1.3323359489e+01 5.5267200470e+00
-3.9540561676e+01 -1.3062460899e+01 5.7194733620e+00
-4.0370449066e+01 -1.3062440872e+01 5.8277978897e+00
-4.4031421661e+01 -1.3062323570e+01 6.3081169128e+00
-1.8290575027e+01 6.1671285629e+00 2.2999041080e+00
-1.6938505173e+01 6.1782031059e+00 2.1483545303e+00
-1.8236640930e+01 8.4887304306e+00 2.3968036175e+00
-1.7212030411e+01 9.4733982086e+00 2.3409633636e+00
-1.7099042892e+01 9.5483789444e+00 2.3335194588e+00
2.4704296589e+00 4.4240036011e+00 6.0374623537e-01
2.4929785728e+00 4.4007225037e+00 6.0264736414e-01
1.4442383051e+00 1.5169140100e+00 2.4956277013e-01
1.4413866997e+00 1.4954491854e+00 2.4748079479e-01
1.4442383051e+00 1.4801172018e+00 2.4640530348e-01
1.4505273104e+00 1.4684178829e+00 2.4593640864e-01
1.4576562643e+00 1.4576562643e+00 2.4562501907e-01
1.5167187452e+00 1.4440233707e+00 2.4952897429e-01
2.0537793636e+00 1.4844726324e+00 3.0194300413e-01
2.0613086224e+00 1.4707421064e+00 3.0171868205e-01
2.0729002953e+00 1.4599022865e+00 3.0209827423e-01
1.8262254715e+01 4.3370118141e+00 2.2365043163e+00
4.5979473114e+01 -4.5286130905e+00 5.5050492287e+00
4.5697929382e+01 -5.0678124428e+00 5.4783763885e+00
3.4681758881e+01 -4.2775974274e+00 4.1637158394e+00
3.4642772675e+01 -4.9217381477e+00 4.1692023277e+00
3.3873542786e+01 -5.2372851372e+00 4.0840601921e+00
3.3270263672e+01 -5.3532419205e+00 4.0152077675e+00
3.3712646484e+01 -5.6368355751e+00 4.0726914406e+00
3.3850555420e+01 -6.3024802208e+00 4.1026716232e+00
3.3549716949e+01 -6.4597263336e+00 4.0709424019e+00
3.3805271149e+01 -6.9401950836e+00 4.1119756699e+00
1.8216268539e+01 -5.1616601944e+00 2.2559583187e+00
1.8027675629e+01 -5.4686326981e+00 2.2446870804e+00
1.7590223312e+01 -5.4540233612e+00 2.1943466663e+00
1.7714237213e+01 -5.6118555069e+00 2.2140693665e+00
1.7682685852e+01 -5.7214646339e+00 2.2144742012e+00
1.7730293274e+01 -5.8573045731e+00 2.2248930931e+00
1.7857040405e+01 -6.1432223320e+00 2.2500913143e+00
1.7793272018e+01 -6.3665232658e+00 2.2517311573e+00
1.7659004211e+01 -6.4409961700e+00 2.2396979332e+00
4.0878475189e+01 -1.5481093407e+01 5.2083368301e+00
4.0349460602e+01 -1.5564511299e+01 5.1529989243e+00
3.5630420685e+01 -1.3995917320e+01 4.5612258911e+00
3.5270114899e+01 -1.4104804039e+01 4.5260910988e+00
3.4692714691e+01 -1.4121425629e+01 4.4630270004e+00
3.4423416138e+01 -1.4258632660e+01 4.4395585060e+00
3.4319812775e+01 -1.4463066101e+01 4.4375557899e+00
3.4182090759e+01 -1.4652655602e+01 4.4312949181e+00
3.4044734955e+01 -1.4841718674e+01 4.4252133369e+00
3.3768981934e+01 -1.5467324257e+01 4.4256320000e+00
3.3764442444e+01 -1.5969393730e+01 4.4503850937e+00
3.3764442444e+01 -1.6479394913e+01 4.4767045975e+00
3.3869579315e+01 -1.7309783936e+01 4.5321235657e+00
3.3869579315e+01 -1.7837324142e+01 4.5610795021e+00
3.3764423370e+01 -1.8314706802e+01 4.5768442154e+00
3.3764423370e+01 -1.8583730698e+01 4.5922045708e+00
3.3764423370e+01 -1.8854589462e+01 4.6078543663e+00
3.3764423370e+01 -1.9127323151e+01 4.6237835884e+00
3.3764404297e+01 -1.9401933670e+01 4.6400036812e+00
3.3764404297e+01 -1.9678495407e+01 4.6565089226e+00
3.3869560242e+01 -2.0584159851e+01 4.7224683762e+00
3.3820400238e+01 -2.0839530945e+01 4.7333593369e+00
3.3869548798e+01 -2.1739980698e+01 4.7954416275e+00
3.3712596893e+01 -2.1932460785e+01 4.7921786308e+00
3.3764385223e+01 -2.2560663223e+01 4.8385348320e+00
3.3764385223e+01 -2.2861562729e+01 4.8585467339e+00
2.0898926258e+00 -1.4527734518e+00 3.0326947570e-01
2.0728223324e+00 -1.4598437548e+00 3.0208680034e-01
2.0612304211e+00 -1.4706835747e+00 3.0170598626e-01
2.0511229038e+00 -1.5017968416e+00 3.0290168524e-01
1.7198026657e+01 -1.2919257164e+01 2.5629549026e+00
1.6927293777e+01 -1.3043867111e+01 2.5462706089e+00
1.6723945618e+01 -1.3051484108e+01 2.5276837349e+00
6.7857809067e+00 -5.4309763908e+00 1.0356096029e+00
6.7939352989e+00 -5.5062303543e+00 1.0419905186e+00
6.4492282867e+00 -5.3593163490e+00 9.9913531542e-01
6.4529099464e+00 -5.4296679497e+00 1.0048482418e+00
6.3120994568e+00 -5.6508007050e+00 1.0094499588e+00
6.2170410156e+00 -5.6347851753e+00 9.9975937605e-01
6.3413672447e+00 -5.8187499046e+00 1.0254745483e+00
6.2716598511e+00 -5.8981833458e+00 1.0258299112e+00
1.5166405439e+00 -1.4439648390e+00 2.4951589108e-01
1.4952929020e+00 -1.4412499666e+00 2.4745392799e-01
1.4799706936e+00 -1.4440820217e+00 2.4637925625e-01
1.4575780630e+00 -1.4575976133e+00 2.4561181664e-01
1.4504492283e+00 -1.4683593512e+00 2.4592313170e-01
1.4441405535e+00 -1.4800390005e+00 2.4638886750e-01
1.4412890673e+00 -1.4953711033e+00 2.4746370316e-01
1.4441015720e+00 -1.5167968273e+00 2.4953870475e-01
1.3549961090e+01 -1.4586288452e+01 2.3721737862e+00
1.3017870903e+01 -1.4541327477e+01 2.3254964352e+00
1.2863143921e+01 -1.4547128677e+01 2.3137657642e+00
1.2454687119e+01 -1.4618866920e+01 2.2883105278e+00
1.2309628487e+01 -1.4629491806e+01 2.2781064510e+00
1.1305077553e+01 -1.3604218483e+01 2.1076064110e+00
1.1318642616e+01 -1.3965703011e+01 2.1419279575e+00
1.1722138405e+01 -1.4646367073e+01 2.2352504730e+00
1.1256200790e+01 -1.4607421875e+01 2.1973106861e+00
1.0980917931e+01 -1.4617753983e+01 2.1784248352e+00
9.9954004288e+00 -1.3477245331e+01 1.9992872477e+00
9.8338184357e+00 -1.3430839539e+01 1.9834107161e+00
9.6443748474e+00 -1.3343124390e+01 1.9616721869e+00
9.1224603653e+00 -1.3123203278e+01 1.9043374062e+00
8.8926563263e+00 -1.3133612633e+01 1.8898681402e+00
8.7892284393e+00 -1.3154003143e+01 1.8850057125e+00
8.5839452744e+00 -1.3194472313e+01 1.8755673170e+00
8.4890041351e+00 -1.3225370407e+01 1.8725194931e+00
8.4046583176e+00 -1.3272401810e+01 1.8718416691e+00
8.3203706741e+00 -1.3319414139e+01 1.8712366819e+00
8.0713958740e+00 -1.3466308594e+01 1.8706818819e+00
7.9344429970e+00 -1.3613945007e+01 1.8775193691e+00
7.8655858040e+00 -1.3688163757e+01 1.8810672760e+00
7.7326464653e+00 -1.3847460747e+01 1.8897745609e+00
7.6306543350e+00 -1.4067655563e+01 1.9068995714e+00
7.5789647102e+00 -1.4179277420e+01 1.9156860113e+00
7.5953221321e+00 -1.4422011375e+01 1.9421784878e+00
7.1940135956e+00 -1.4513124466e+01 1.9300588369e+00
7.0834178925e+00 -1.4513124466e+01 1.9242419004e+00
6.9734859467e+00 -1.4513124466e+01 1.9185323715e+00
6.5400586128e+00 -1.4513124466e+01 1.8967396021e+00
6.4332127571e+00 -1.4513124466e+01 1.8915408850e+00
6.3269529343e+00 -1.4513105392e+01 1.8864469528e+00
6.2212595940e+00 -1.4513105392e+01 1.8814480305e+00
6.0777049065e+00 -1.4421972275e+01 1.8647990227e+00
5.8934469223e+00 -1.4478672028e+01 1.8626044989e+00
5.6654195786e+00 -1.5241503716e+01 1.9374574423e+00
5.2434177399e+00 -1.5241483688e+01 1.9205131531e+00
5.1390428543e+00 -1.5241483688e+01 1.9165045023e+00
5.0351071358e+00 -1.5241483688e+01 1.9125815630e+00
4.9315819740e+00 -1.5241483688e+01 1.9087504148e+00
4.7257714272e+00 -1.5241483688e+01 1.9013432264e+00
4.4525876045e+00 -1.5353983879e+01 1.9048303366e+00
4.3506250381e+00 -1.5353983879e+01 1.9014811516e+00
4.2490329742e+00 -1.5353983879e+01 1.8982195854e+00
4.0468454361e+00 -1.5353983879e+01 1.8919368982e+00
3.8459765911e+00 -1.5353983879e+01 1.8859757185e+00
3.7459959984e+00 -1.5353983879e+01 1.8831174374e+00
3.4478514194e+00 -1.5353983879e+01 1.8750149012e+00
3.3490233421e+00 -1.5353964806e+01 1.8724706173e+00
9.6510738134e-01 -4.8518943787e+00 5.8943760395e-01
9.3418943882e-01 -4.8518748283e+00 5.8872669935e-01
8.4186524153e-01 -4.8517770767e+00 5.8673596382e-01
2.3739159107e+00 -1.5353964806e+01 1.8511915207e+00
2.2775390148e+00 -1.5353944778e+01 1.8494712114e+00
1.9748632908e+00 -1.5241425514e+01 1.8312259912e+00
1.8798534870e+00 -1.5241425514e+01 1.8298047781e+00
1.6902440786e+00 -1.5241425514e+01 1.8271781206e+00
1.4067772627e+00 -1.5241425514e+01 1.8237622976e+00
1.3125097752e+00 -1.5241405487e+01 1.8227645159e+00
1.1242773533e+00 -1.5241386414e+01 1.8209773302e+00
1.0302929878e+00 -1.5241386414e+01 1.8201872110e+00
9.3637692928e-01 -1.5241386414e+01 1.8194663525e+00
8.0254882574e-01 -1.4518027306e+01 1.7324954271e+00
6.1982423067e-01 -1.4421854973e+01 1.7199794054e+00
5.3454101086e-01 -1.4513007164e+01 1.7304261923e+00
4.4539061189e-01 -1.4513007164e+01 1.7300660610e+00
1.7810545862e-01 -1.4513007164e+01 1.7293821573e+00
-2.6717773080e-01 -1.4512968063e+01 1.7295429707e+00
-4.4539061189e-01 -1.4512968063e+01 1.7300660610e+00
-5.3455078602e-01 -1.4512968063e+01 1.7304214239e+00
-7.1297848225e-01 -1.4512968063e+01 1.7313364744e+00
-8.8602536917e-01 -1.4421835899e+01 1.7216279507e+00
-9.7488278151e-01 -1.4421835899e+01 1.7223107815e+00
-1.0705175400e+00 -1.4512557983e+01 1.7338941097e+00
-2.0437598228e+00 -6.3164062500e+00 7.9102694988e-01
-2.0682713985e+00 -6.2607617378e+00 7.8563255072e-01
-2.1162598133e+00 -6.1515035629e+00 7.7512395382e-01
-2.1857225895e+00 -5.9925193787e+00 7.6003164053e-01
-2.2125194073e+00 -5.9522652626e+00 7.5663548708e-01
-2.2438867092e+00 -5.9250974655e+00 7.5491660833e-01
-2.2751073837e+00 -5.8979883194e+00 7.5322806835e-01
-2.3061621189e+00 -5.8709764481e+00 7.5157070160e-01
-2.3678221703e+00 -5.8171677589e+00 7.4834537506e-01
-2.4288866520e+00 -5.7635936737e+00 7.4523335695e-01
-2.4908788204e+00 -5.7137303352e+00 7.4268215895e-01
-2.5655174255e+00 -5.6931834221e+00 7.4404972792e-01
-2.6029393673e+00 -5.6828708649e+00 7.4477505684e-01
-2.6403319836e+00 -5.6723241806e+00 7.4550098181e-01
-2.7520604134e+00 -5.6386718750e+00 7.4761068821e-01
-2.8268260956e+00 -5.6159567833e+00 7.4914038181e-01
-2.8728806973e+00 -5.6212887764e+00 7.5218969584e-01
-3.1619043350e+00 -5.6622848511e+00 7.7273482084e-01
-3.3697166443e+00 -5.7817773819e+00 7.9737514257e-01
-3.4863476753e+00 -5.8984179497e+00 8.1639456749e-01
-2.1540477753e+01 -2.4971483231e+01 3.9294242859e+00
-2.1540477753e+01 -2.4360467911e+01 3.8745880127e+00
-2.1542919159e+01 -2.4064062119e+01 3.8483977318e+00
-2.1690298080e+01 -2.3931562424e+01 3.8484196663e+00
-2.1982582092e+01 -2.3663827896e+01 3.8484637737e+00
-2.2127470016e+01 -2.3528633118e+01 3.8484849930e+00
-2.1802953720e+01 -2.2620819092e+01 3.7434792519e+00
-2.2557157516e+01 -2.3117733002e+01 3.8485467434e+00
-2.2698699951e+01 -2.2979003906e+01 3.8485677242e+00
-2.2979232788e+01 -2.2698984146e+01 3.8486073017e+00
-2.3529853821e+01 -2.2128652573e+01 3.8486831188e+00
-2.3597036362e+01 -2.1652343750e+01 3.8159277439e+00
-2.3597030640e+01 -2.1387109756e+01 3.7946307659e+00
-2.3597024918e+01 -2.0865428925e+01 3.7531547546e+00
-2.3597024918e+01 -2.0608808517e+01 3.7329857349e+00
-2.3597024918e+01 -2.0354940414e+01 3.7131605148e+00
-2.3597024918e+01 -1.9609140396e+01 3.6557264328e+00
-2.3597024918e+01 -1.9365566254e+01 3.6372570992e+00
-2.3501014709e+01 -1.8340351105e+01 3.5519835949e+00
-2.3501014709e+01 -1.8109453201e+01 3.5351209641e+00
-2.3501014709e+01 -1.7880702972e+01 3.5185503960e+00
-2.2447381973e+01 -1.6224960327e+01 3.3001737595e+00
-2.2787899017e+01 -1.6259159088e+01 3.3355054855e+00
-2.3480537415e+01 -1.6322265625e+01 3.4073154926e+00
-2.5106801987e+01 -1.7225194931e+01 3.6278994083e+00
-2.5439989090e+01 -1.7225194931e+01 3.6607005596e+00
-2.6476919174e+01 -1.7225156784e+01 3.7636439800e+00
-2.6835697174e+01 -1.7225156784e+01 3.7995488644e+00
-2.7574275970e+01 -1.7225135803e+01 3.8738982677e+00
-2.7954545975e+01 -1.7225116730e+01 3.9124016762e+00
-2.8342451096e+01 -1.7225097656e+01 3.9518251419e+00
-2.8738285065e+01 -1.7225097656e+01 3.9922015667e+00
-2.9142290115e+01 -1.7225078583e+01 4.0335745811e+00
-2.9554794312e+01 -1.7225057602e+01 4.0759534836e+00
-2.9976068497e+01 -1.7225038528e+01 4.1193966866e+00
-3.0757680893e+01 -1.7175584793e+01 4.1975293159e+00
-3.0757675171e+01 -1.6683788300e+01 4.1692705154e+00
-3.0757669449e+01 -1.6198476791e+01 4.1420068741e+00
-3.0757659912e+01 -1.5246288300e+01 4.0903720856e+00
-3.0757659912e+01 -1.5011894226e+01 4.0780472755e+00
-3.0757659912e+01 -1.4778905869e+01 4.0659427643e+00
-3.0757656097e+01 -1.4317011833e+01 4.0424146652e+00
-3.0757646561e+01 -1.4088047028e+01 4.0309767723e+00
-3.1017543793e+01 -1.3749120712e+01 4.0426197052e+00
-3.1017538071e+01 -1.3522030830e+01 4.0317196846e+00
-3.1284149170e+01 -1.3410429001e+01 4.0556221008e+00
-3.1296815872e+01 -1.3189140320e+01 4.0466775894e+00
-3.1536317825e+01 -1.3062772751e+01 4.0671844482e+00
-3.3302837372e+01 -1.3081640244e+01 4.2632398605e+00
-3.5651268005e+01 -1.3752225876e+01 4.5530142784e+00
-3.6313251495e+01 -1.3752225876e+01 4.6266779900e+00
-4.0082546234e+01 -1.4341776848e+01 5.0724291801e+00
-4.0136325836e+01 -1.3807811737e+01 5.0574097633e+00
-4.0786102295e+01 -1.3752070427e+01 5.1285595894e+00
-4.4229831696e+01 -1.4011972427e+01 5.5282073021e+00
-4.4314922333e+01 -1.3740312576e+01 5.5282025337e+00
-4.4398353577e+01 -1.3468124390e+01 5.5281982422e+00
-4.5043373108e+01 -1.3062362671e+01 5.5881257057e+00
-1.8290483475e+01 6.1670899391e+00 1.9501813650e+00
-1.8052850723e+01 6.2105855942e+00 1.9288643599e+00
-1.7357412338e+01 6.2105660439e+00 1.8625625372e+00
-1.8264041901e+01 7.3039255142e+00 1.9873702526e+00
-1.8286411285e+01 7.4433398247e+00 1.9947346449e+00
-1.8286401749e+01 7.7062692642e+00 2.0049016476e+00
-1.8286401749e+01 7.8387498856e+00 2.0101354122e+00
-1.8286396027e+01 7.9719138145e+00 2.0154745579e+00
-1.8286390305e+01 8.1058006287e+00 2.0209178925e+00
-1.8236728668e+01 8.4888086319e+00 2.0323550701e+00
-1.8286371231e+01 8.6488084793e+00 2.0437624454e+00
-1.8286361694e+01 8.9250192642e+00 2.0558505058e+00
-1.8286357880e+01 9.0643749237e+00 2.0620613098e+00
-1.8286352158e+01 9.2045698166e+00 2.0683929920e+00
-1.8286346436e+01 9.3456439972e+00 2.0748350620e+00
-1.8258964539e+01 9.4733982086e+00 2.0782432556e+00
-1.8072568893e+01 9.5178899765e+00 2.0636818409e+00
-1.7806678772e+01 9.5178709030e+00 2.0399558544e+00
-1.7398750305e+01 9.5761718750e+00 2.0066096783e+00
-1.4244843483e+01 1.1985996246e+01 1.8809095621e+00
2.5247850418e+00 4.3937692642e+00 5.1199024916e-01
1.4511132240e+00 1.5429883003e+00 2.1400552988e-01
1.4354199171e+00 1.4892578125e+00 2.0897915959e-01
1.4383789301e+00 1.4741210938e+00 2.0808923244e-01
1.4455077648e+00 1.4633593559e+00 2.0781838894e-01
1.4526269436e+00 1.4526171684e+00 2.0755586028e-01
1.4891796112e+00 1.4353319407e+00 2.0896817744e-01
1.5069726706e+00 1.4347460270e+00 2.1022531390e-01
1.5421776772e+00 1.4503320456e+00 2.1389199793e-01
2.0457811356e+00 1.5172460079e+00 2.5733441114e-01
2.0429003239e+00 1.4957811832e+00 2.5581365824e-01
2.0543260574e+00 1.4657616615e+00 2.5497183204e-01
2.0653710365e+00 1.4545898438e+00 2.5522994995e-01
7.1872653961e+00 4.6758203506e+00 8.6630260944e-01
7.2920117378e+00 4.5551757812e+00 8.6867249012e-01
7.3630466461e+00 4.5369725227e+00 8.7380111217e-01
4.6174785614e+01 -4.5478124619e+00 4.6877808571e+00
4.6013671875e+01 -5.3888473511e+00 4.6807003021e+00
4.6153495789e+01 -5.6924805641e+00 4.6983947754e+00
3.4336845398e+01 -4.6635155678e+00 3.5010313988e+00
3.4296699524e+01 -5.7344918251e+00 3.5132217407e+00
3.3543846130e+01 -6.0326757431e+00 3.4434306622e+00
1.8049150467e+01 -5.2341599464e+00 1.8987036943e+00
1.8056797028e+01 -5.3567185402e+00 1.9029303789e+00
1.7776533127e+01 -5.3924412727e+00 1.8768428564e+00
1.7734901428e+01 -5.7383594513e+00 1.8832863569e+00
1.7864217758e+01 -5.9015426636e+00 1.9008269310e+00
1.7734491348e+01 -5.9796090126e+00 1.8908926249e+00
1.7597969055e+01 -6.0541014671e+00 1.8802587986e+00
1.7879989624e+01 -6.2740621567e+00 1.9144713879e+00
1.7708642960e+01 -6.3362498283e+00 1.9002511501e+00
1.8116502762e+01 -6.6078515053e+00 1.9483313560e+00
4.1600204468e+01 -1.5463241577e+01 4.4839935303e+00
4.0878650665e+01 -1.5481151581e+01 4.4163746834e+00
3.5161727905e+01 -1.3563378334e+01 3.8076581955e+00
3.5136943817e+01 -1.3802089691e+01 3.8140797615e+00
3.4971805573e+01 -1.3985507965e+01 3.8053922653e+00
3.4360301971e+01 -1.4232480049e+01 3.7575807571e+00
3.4183799744e+01 -1.4405741692e+01 3.7478718758e+00
3.4010448456e+01 -1.4579081535e+01 3.7386023998e+00
3.3906658173e+01 -1.4781522751e+01 3.7370960712e+00
3.3756942749e+01 -1.5211933136e+01 3.7408843040e+00
3.3712390900e+01 -1.5944765091e+01 3.7678420544e+00
3.3712390900e+01 -1.6198612213e+01 3.7788755894e+00
3.3712390900e+01 -1.6453983307e+01 3.7901217937e+00
3.3712383270e+01 -1.6710897446e+01 3.8015773296e+00
3.3712371826e+01 -1.6969373703e+01 3.8132481575e+00
3.3712352753e+01 -1.8825527191e+01 3.9011616707e+00
3.3327617645e+01 -1.9150936127e+01 3.8835465908e+00
3.3712352753e+01 -1.9648162842e+01 3.9423518181e+00
3.3712341309e+01 -1.9926288605e+01 3.9565734863e+00
3.3712341309e+01 -2.0772930145e+01 4.0007758141e+00
3.3712333679e+01 -2.1932285309e+01 4.0634455681e+00
3.3712322235e+01 -2.2525878906e+01 4.0964593887e+00
3.3712322235e+01 -2.2826328278e+01 4.1134028435e+00
2.1029784679e+00 -1.4428124428e+00 2.5766980648e-01
2.0542480946e+00 -1.4657031298e+00 2.5496256351e-01
2.0460155010e+00 -1.4788671732e+00 2.5506222248e-01
2.0456445217e+00 -1.5171483755e+00 2.5731721520e-01
1.7197948456e+01 -1.2919178963e+01 2.1731960773e+00
1.6723974228e+01 -1.3051503181e+01 2.1433274746e+00
1.6390594482e+01 -1.2953945160e+01 2.1107387543e+00
6.4827828407e+00 -5.3871874809e+00 8.5161489248e-01
6.4866795540e+00 -5.4580664635e+00 8.5651081800e-01
6.4986033440e+00 -5.6756443977e+00 8.7173354626e-01
6.3659567833e+00 -5.6990036964e+00 8.6325705051e-01
6.2695798874e+00 -5.6824216843e+00 8.5489886999e-01
6.3480663300e+00 -5.8970508575e+00 8.7540465593e-01
1.5420604944e+00 -1.4502342939e+00 2.1387487650e-01
1.4740331173e+00 -1.4383007288e+00 2.0807634294e-01
1.4632714987e+00 -1.4454296827e+00 2.0780560374e-01
1.4525487423e+00 -1.4525585175e+00 2.0754490793e-01
1.4454296827e+00 -1.4632812738e+00 2.0780716836e-01
1.4383007288e+00 -1.4740428925e+00 2.0807813108e-01
1.4348046780e+00 -1.5070312023e+00 2.1023297310e-01
1.2698261261e+01 -1.3669433594e+01 1.8850284815e+00
1.2719892502e+01 -1.4208476067e+01 1.9267412424e+00
1.2676298141e+01 -1.4514335632e+01 1.9469910860e+00
1.2605458260e+01 -1.4613261223e+01 1.9498305321e+00
1.1230448723e+01 -1.4032011032e+01 1.8158545494e+00
1.1236943245e+01 -1.4218085289e+01 1.8309767246e+00
1.1215077400e+01 -1.4554081917e+01 1.8563807011e+00
1.1117001534e+01 -1.4611347198e+01 1.8549486399e+00
1.0980204582e+01 -1.4616796494e+01 1.8470541239e+00
9.4240627289e+00 -1.3208241463e+01 1.6393339634e+00
9.2670898438e+00 -1.3331269264e+01 1.6403622627e+00
9.0150194168e+00 -1.3314335823e+01 1.6245454550e+00
8.8013477325e+00 -1.3348730087e+01 1.6154403687e+00
8.6124019623e+00 -1.3238203049e+01 1.5956393480e+00
8.5432319641e+00 -1.3309843063e+01 1.5979243517e+00
8.4583492279e+00 -1.3357187271e+01 1.5973489285e+00
8.3735256195e+00 -1.3404491425e+01 1.5968331099e+00
8.2887401581e+00 -1.3451777458e+01 1.5963751078e+00
8.2040033340e+00 -1.3499023438e+01 1.5959790945e+00
8.0972948074e+00 -1.3509531021e+01 1.5913140774e+00
8.0999412537e+00 -1.3703925133e+01 1.6083283424e+00
7.7937889099e+00 -1.4160370827e+01 1.6330616474e+00
7.7041110992e+00 -1.4203065872e+01 1.6325014830e+00
7.6075291634e+00 -1.4232675552e+01 1.6305102110e+00
7.5953316689e+00 -1.4422031403e+01 1.6468540430e+00
7.4172654152e+00 -1.4513163567e+01 1.6467181444e+00
7.3053026199e+00 -1.4513163567e+01 1.6416006088e+00
7.1940231323e+00 -1.4513163567e+01 1.6365751028e+00
7.0834374428e+00 -1.4513144493e+01 1.6316436529e+00
6.9734959602e+00 -1.4513144493e+01 1.6268037558e+00
6.7555370331e+00 -1.4513144493e+01 1.6173869371e+00
6.6475000381e+00 -1.4513144493e+01 1.6128120422e+00
6.5400681496e+00 -1.4513144493e+01 1.6083223820e+00
6.4332222939e+00 -1.4513144493e+01 1.6039166451e+00
6.3269629478e+00 -1.4513144493e+01 1.5995945930e+00
6.0777244568e+00 -1.4422011375e+01 1.5812264681e+00
5.9737792015e+00 -1.4422011375e+01 1.5771595240e+00
5.8273339272e+00 -1.4835058212e+01 1.6103286743e+00
5.8273339272e+00 -1.5106796265e+01 1.6359130144e+00
5.7721190453e+00 -1.5241522789e+01 1.6466377974e+00
5.4535055161e+00 -1.5241522789e+01 1.6355137825e+00
5.3482422829e+00 -1.5241522789e+01 1.6319586039e+00
5.2434277534e+00 -1.5241522789e+01 1.6284838915e+00
5.1390523911e+00 -1.5241503716e+01 1.6250844002e+00
4.9315915108e+00 -1.5241503716e+01 1.6185078621e+00
4.8284864426e+00 -1.5241503716e+01 1.6153320074e+00
4.7257809639e+00 -1.5241503716e+01 1.6122277975e+00
4.5215234756e+00 -1.5241503716e+01 1.6062365770e+00
4.3506345749e+00 -1.5354022980e+01 1.6123460531e+00
4.2490329742e+00 -1.5354022980e+01 1.6095777750e+00
3.9462695122e+00 -1.5354003906e+01 1.6016896963e+00
3.8459861279e+00 -1.5354003906e+01 1.5991967916e+00
3.7460155487e+00 -1.5354003906e+01 1.5967725515e+00
3.6463279724e+00 -1.5354003906e+01 1.5944148302e+00
3.4478514194e+00 -1.5354003906e+01 1.5899000168e+00
1.0263574123e+00 -4.8481249809e+00 5.0068032742e-01
9.6434569359e-01 -4.8480663300e+00 4.9941459298e-01
9.3345701694e-01 -4.8480467796e+00 4.9881261587e-01
9.0263670683e-01 -4.8480272293e+00 4.9823102355e-01
8.7188476324e-01 -4.8479881287e+00 4.9766883254e-01
8.4121090174e-01 -4.8479685783e+00 4.9712744355e-01
7.8901368380e-01 -5.1031637192e+00 5.2171677351e-01
2.2775487900e+00 -1.5353983879e+01 1.5682408810e+00
2.1653709412e+00 -1.5241464615e+01 1.5553640127e+00
2.0700390339e+00 -1.5241464615e+01 1.5540370941e+00
1.9748729467e+00 -1.5241444588e+01 1.5527726412e+00
1.8798632622e+00 -1.5241444588e+01 1.5515683889e+00
1.6902538538e+00 -1.5241444588e+01 1.5493398905e+00
1.5956444740e+00 -1.5241444588e+01 1.5483137369e+00
1.2183593512e+00 -1.5241425514e+01 1.5448119640e+00
1.0302929878e+00 -1.5241425514e+01 1.5434112549e+00
9.3638670444e-01 -1.5241405487e+01 1.5428024530e+00
5.3455078602e-01 -1.4513027191e+01 1.4672983885e+00
4.4539061189e-01 -1.4513027191e+01 1.4669946432e+00
3.5626950860e-01 -1.4513027191e+01 1.4667451382e+00
1.7810545862e-01 -1.4513027191e+01 1.4664143324e+00
8.9042969048e-02 -1.4513007164e+01 1.4663311243e+00
-2.6718750596e-01 -1.4513007164e+01 1.4665505886e+00
-5.3454101086e-01 -1.4512988091e+01 1.4672960043e+00
-8.0227535963e-01 -1.4512988091e+01 1.4685407877e+00
-5.1637105942e+00 -3.4810935974e+01 3.5555615425e+00
-2.1625781059e+00 -6.2861719131e+00 6.7164707184e-01
-2.1825683117e+00 -6.2199411392e+00 6.6599011421e-01
-2.2215428352e+00 -6.0907225609e+00 6.5502434969e-01
-2.2957031727e+00 -5.9514060020e+00 6.4447593689e-01
-2.3261523247e+00 -5.9218554497e+00 6.4281064272e-01
-2.3865623474e+00 -5.8632030487e+00 6.3957440853e-01
-2.4165430069e+00 -5.8340821266e+00 6.3800305128e-01
-2.4463768005e+00 -5.8050780296e+00 6.3646221161e-01
-2.5452733040e+00 -5.7420701981e+00 6.3458180428e-01
-2.6961815357e+00 -5.7006249428e+00 6.3712531328e-01
-2.7341015339e+00 -5.6901950836e+00 6.3782197237e-01
-2.8101756573e+00 -5.6692380905e+00 6.3929039240e-01
-2.8538377285e+00 -5.6696090698e+00 6.4129501581e-01
-2.9541406631e+00 -5.6937890053e+00 6.4808380604e-01
-3.1086230278e+00 -5.7309765816e+00 6.5871906281e-01
-2.1803104401e+01 -2.6902109146e+01 3.4985985756e+00
-2.3479461670e+01 -2.6883924484e+01 3.6062557697e+00
-2.3597196579e+01 -2.6686424255e+01 3.5991146564e+00
-2.3597772598e+01 -2.5402557373e+01 3.5030379295e+00
-2.3597187042e+01 -2.5091405869e+01 3.4800319672e+00
-2.3597181320e+01 -2.4784940720e+01 3.4575376511e+00
-2.1803085327e+01 -2.2620956421e+01 3.1742630005e+00
-2.3597181320e+01 -2.4183612823e+01 3.4137971401e+00
-2.3597177505e+01 -2.3597187042e+01 3.3716433048e+00
-2.3597171783e+01 -2.3309373856e+01 3.3511431217e+00
-2.3489906311e+01 -2.2640663147e+01 3.2962024212e+00
-2.3658901215e+01 -2.1978027344e+01 3.2625939846e+00
-2.3658901215e+01 -2.1709100723e+01 3.2441630363e+00
-2.3658895493e+01 -2.1443183899e+01 3.2260549068e+00
-2.3597158432e+01 -2.1124980927e+01 3.1999003887e+00
-2.3597158432e+01 -2.0355077744e+01 3.1485481262e+00
-2.3597152710e+01 -2.0103866577e+01 3.1320292950e+00
-2.3597146988e+01 -1.9365682602e+01 3.0841941833e+00
-2.3597143173e+01 -1.9124589920e+01 3.0687868595e+00
-2.1831127167e+01 -1.7253768921e+01 2.8113718033e+00
-2.3597133636e+01 -1.7726308823e+01 2.9818615913e+00
-2.3597133636e+01 -1.7500839233e+01 2.9682312012e+00
-2.3500345230e+01 -1.7206562042e+01 2.9427223206e+00
-2.1540552139e+01 -1.5369159698e+01 2.6734957695e+00
-2.1700101852e+01 -1.5282948494e+01 2.6816122532e+00
-2.2058115005e+01 -1.5333476067e+01 2.7141733170e+00
-2.3188617706e+01 -1.5494159698e+01 2.8177013397e+00
-2.3540073395e+01 -1.5520917892e+01 2.8487832546e+00
-2.6477016449e+01 -1.7225214005e+01 3.1913554668e+00
-2.8342523575e+01 -1.7225156784e+01 3.3509156704e+00
-2.9222528458e+01 -1.7272480011e+01 3.4296362400e+00
-2.9554891586e+01 -1.7225097656e+01 3.4561784267e+00
-2.9976140976e+01 -1.7225097656e+01 3.4930107594e+00
-3.0757825851e+01 -1.7175683975e+01 3.5592701435e+00
-3.0757825851e+01 -1.6928945541e+01 3.5471773148e+00
-3.0757816315e+01 -1.6440410614e+01 3.5236437321e+00
-3.0757806778e+01 -1.5719471931e+01 3.4898998737e+00
-3.0757806778e+01 -1.5482187271e+01 3.4790525436e+00
-3.0757802963e+01 -1.5011972427e+01 3.4579544067e+00
-3.0757797241e+01 -1.4317070007e+01 3.4277360439e+00
-3.0757787704e+01 -1.4088105202e+01 3.4180417061e+00
-3.0757787704e+01 -1.3860390663e+01 3.4085247517e+00
-3.1296957016e+01 -1.3189198494e+01 3.4313592911e+00
-3.3863899231e+01 -1.3062753677e+01 3.6671175957e+00
-3.4492664337e+01 -1.3062733650e+01 3.7264564037e+00
-3.5142158508e+01 -1.3062714577e+01 3.7879111767e+00
-3.6396850586e+01 -1.3275487900e+01 3.9142773151e+00
-3.7970203400e+01 -1.3062636375e+01 4.0569367409e+00
-4.3495498657e+01 -1.3779315948e+01 4.6097621918e+00
-1.7357294083e+01 6.2105274200e+00 1.5297477245e+00
-1.6938652039e+01 6.1782422066e+00 1.4962397814e+00
-1.8286493301e+01 7.4433789253e+00 1.6383204460e+00
-1.8286483765e+01 7.7062888145e+00 1.6466691494e+00
-1.8286468506e+01 8.2404489517e+00 1.6643843651e+00
-1.8267284393e+01 8.3670310974e+00 1.6672616005e+00
-1.8236806870e+01 8.4888277054e+00 1.6692208052e+00
-1.8286449432e+01 8.7865428925e+00 1.6835050583e+00
-1.8286445618e+01 8.9250583649e+00 1.6885144711e+00
-1.8286439896e+01 9.0644140244e+00 1.6936198473e+00
-1.8286436081e+01 9.2046089172e+00 1.6988155842e+00
-1.8286436081e+01 9.3456830978e+00 1.7041108608e+00
-1.8258895874e+01 9.4733591080e+00 1.7069487572e+00
-1.8072509766e+01 9.5178508759e+00 1.6949391365e+00
-1.4279735565e+01 1.1719061852e+01 1.5328986645e+00
-1.4264999390e+01 1.1854199409e+01 1.5390943289e+00
-1.6664061546e+00 1.1729921341e+01 9.8313289881e-01
-1.5198436975e+00 1.1730253220e+01 9.8152077198e-01
-1.3790332079e+00 1.2435819626e+01 1.0382584333e+00
2.4929687977e+00 4.4007029533e+00 4.1969794035e-01
2.5247752666e+00 4.3937692642e+00 4.2050680518e-01
1.4308788776e+00 1.5214843750e+00 1.7331622541e-01
1.4266210794e+00 1.4984179735e+00 1.7168249190e-01
1.4295214415e+00 1.4831249714e+00 1.7093405128e-01
1.4405468702e+00 1.4583202600e+00 1.7009907961e-01
1.4830663204e+00 1.4294335842e+00 1.7092442513e-01
1.4983397722e+00 1.4265428782e+00 1.7167384923e-01
2.0354590416e+00 1.5096093416e+00 2.1028664708e-01
2.0388476849e+00 1.4736717939e+00 2.0875287056e-01
2.0474219322e+00 1.4608203173e+00 2.0870916545e-01
7.1408982277e+00 4.7082614899e+00 7.0976692438e-01
7.1552243233e+00 4.6549801826e+00 7.0833891630e-01
7.1832027435e+00 4.6106834412e+00 7.0829433203e-01
7.2809863091e+00 4.5482811928e+00 7.1237915754e-01
7.3373827934e+00 4.5211520195e+00 7.1514075994e-01
1.8256795883e+01 4.3357028961e+00 1.5570994616e+00
4.6624179840e+01 -4.5920896530e+00 3.8876380920e+00
4.6164951324e+01 -4.8330469131e+00 3.8517503738e+00
4.5460556030e+01 -5.0415039062e+00 3.7954878807e+00
4.5629596710e+01 -5.6278905869e+00 3.8150787354e+00
4.5838962555e+01 -6.2256836891e+00 3.8386869431e+00
4.5850147247e+01 -6.5139646530e+00 3.8428916931e+00
3.3998992920e+01 -5.0432810783e+00 2.8521349430e+00
3.3924922943e+01 -5.8865427971e+00 2.8571918011e+00
3.3730281830e+01 -6.0662107468e+00 2.8438737392e+00
3.4726982117e+01 -6.4656639099e+00 2.9311997890e+00
1.8129804611e+01 -5.3783593178e+00 1.5692325830e+00
1.8137676239e+01 -5.5019922256e+00 1.5728052855e+00
1.7920780182e+01 -5.7985153198e+00 1.5629895926e+00
1.7839658737e+01 -5.8934373856e+00 1.5590395927e+00
1.8130750656e+01 -6.4872851372e+00 1.5979146957e+00
4.1641765594e+01 -1.5188515663e+01 3.6781523228e+00
4.0878807068e+01 -1.5481229782e+01 3.6272687912e+00
3.5270408630e+01 -1.4104921341e+01 3.1521468163e+00
3.4706073761e+01 -1.4126854897e+01 3.1093814373e+00
3.4191825867e+01 -1.4656835556e+01 3.0869622231e+00
3.4054431915e+01 -1.4845956802e+01 3.0827257633e+00
3.3813495636e+01 -1.4988495827e+01 3.0691771507e+00
3.3815917969e+01 -1.5238495827e+01 3.0778241158e+00
3.3775096893e+01 -1.5721562386e+01 3.0914421082e+00
3.3775096893e+01 -1.5974432945e+01 3.1003558636e+00
3.3880233765e+01 -1.6794101715e+01 3.1378571987e+00
3.3820117950e+01 -1.7023593903e+01 3.1419055462e+00
3.3880214691e+01 -1.7842929840e+01 3.1774628162e+00
3.3880214691e+01 -1.8109355927e+01 3.1878268719e+00
3.3775058746e+01 -1.8589590073e+01 3.1991567612e+00
3.3775047302e+01 -1.9408046722e+01 3.2324516773e+00
3.3775047302e+01 -1.9684686661e+01 3.2439532280e+00
3.3775039673e+01 -1.9963338852e+01 3.2556562424e+00
3.3820068359e+01 -2.0839336395e+01 3.2964172363e+00
3.3880184174e+01 -2.1164297104e+01 3.3148705959e+00
3.3831260681e+01 -2.1423437119e+01 3.3228850365e+00
3.3880176544e+01 -2.1746795654e+01 3.3407268524e+00
3.3775009155e+01 -2.2269199371e+01 3.3570594788e+00
3.3775009155e+01 -2.2567752838e+01 3.3707616329e+00
2.0917186737e+00 -1.4350975752e+00 2.1049645543e-01
2.0473437309e+00 -1.4608007669e+00 2.0870102942e-01
2.0387694836e+00 -1.4736132622e+00 2.0874558389e-01
2.0352149010e+00 -1.4901367426e+00 2.0931424201e-01
1.6725057602e+01 -1.2888027191e+01 1.7521131039e+00
1.6556943893e+01 -1.2921171188e+01 1.7427763939e+00
1.6306562424e+01 -1.3050878525e+01 1.7331449986e+00
6.9855566025e+00 -5.6615233421e+00 7.4613982439e-01
6.5165624619e+00 -5.4152731895e+00 7.0309317112e-01
6.5206737518e+00 -5.4866795540e+00 7.0715451241e-01
6.5248336792e+00 -5.5589060783e+00 7.1129071712e-01
6.5290331841e+00 -5.6319918633e+00 7.1550267935e-01
6.5202927589e+00 -5.7655076981e+00 7.2224491835e-01
6.4205465317e+00 -5.7478904724e+00 7.1508967876e-01
6.4253025055e+00 -5.8957810402e+00 7.2362262011e-01
1.4982812405e+00 -1.4264843464e+00 1.7166715860e-01
1.4830077887e+00 -1.4293944836e+00 1.7091760039e-01
1.4689648151e+00 -1.4333593845e+00 1.7031052709e-01
1.4582421780e+00 -1.4404686689e+00 1.7008900642e-01
1.4475682974e+00 -1.4475780725e+00 1.6987623274e-01
1.4404686689e+00 -1.4582617283e+00 1.7009040713e-01
1.4333593845e+00 -1.4689843655e+00 1.7031130195e-01
1.4265234470e+00 -1.4983397722e+00 1.7167107761e-01
1.2745429039e+01 -1.3890175819e+01 1.5643241405e+00
1.2759892464e+01 -1.4253144264e+01 1.5874468088e+00
1.2767285347e+01 -1.4438710213e+01 1.5993578434e+00
1.1293251991e+01 -1.2930742264e+01 1.4246174097e+00
1.1173856735e+01 -1.3115488052e+01 1.4297600985e+00
1.1204569817e+01 -1.3316190720e+01 1.4441130161e+00
1.1210898399e+01 -1.3490859032e+01 1.4555726051e+00
1.1230497360e+01 -1.4032070160e+01 1.4913990498e+00
1.1237011909e+01 -1.4218163490e+01 1.5038231611e+00
1.1117031097e+01 -1.4611367226e+01 1.5235073566e+00
9.8339548111e+00 -1.3431015015e+01 1.3813220263e+00
9.4648046494e+00 -1.3265351295e+01 1.3522357941e+00
9.3312005997e+00 -1.3249296188e+01 1.3447395563e+00
8.8495502472e+00 -1.3244277000e+01 1.3217819929e+00
8.7459373474e+00 -1.3264706612e+01 1.3184421062e+00
8.2887306213e+00 -1.3451757431e+01 1.3111321926e+00
8.0562200546e+00 -1.3629940987e+01 1.3138214350e+00
7.8482518196e+00 -1.3854121208e+01 1.3212772608e+00
7.7929491997e+00 -1.3955488205e+01 1.3263595104e+00
7.7417964935e+00 -1.4065917969e+01 1.3323159218e+00
7.6901755333e+00 -1.4177363396e+01 1.3383789062e+00
7.5953416824e+00 -1.4422050476e+01 1.3525959253e+00
7.4959764481e+00 -1.4447714806e+01 1.3506412506e+00
7.3053121567e+00 -1.4513183594e+01 1.3482798338e+00
7.1940331459e+00 -1.4513183594e+01 1.3441524506e+00
6.7555565834e+00 -1.4513163567e+01 1.3283920288e+00
6.6475095749e+00 -1.4513163567e+01 1.3246333599e+00
6.5400781631e+00 -1.4513163567e+01 1.3209462166e+00
6.4332418442e+00 -1.4513163567e+01 1.3173269033e+00
6.3269824982e+00 -1.4513163567e+01 1.3137812614e+00
6.2212891579e+00 -1.4513163567e+01 1.3103001118e+00
6.0777344704e+00 -1.4422031403e+01 1.2986885309e+00
5.9737887383e+00 -1.4422031403e+01 1.2953556776e+00
5.8272652626e+00 -1.4571522713e+01 1.3022608757e+00
5.8272652626e+00 -1.4834882736e+01 1.3225797415e+00
5.8272652626e+00 -1.5106620789e+01 1.3435909748e+00
5.7721285820e+00 -1.5241542816e+01 1.3524167538e+00
5.6654391289e+00 -1.5241542816e+01 1.3493074179e+00
5.5592379570e+00 -1.5241542816e+01 1.3462623358e+00
5.4535155296e+00 -1.5241542816e+01 1.3432796001e+00
5.2434372902e+00 -1.5241542816e+01 1.3375080824e+00
4.7856540680e+00 -1.4790449142e+01 1.2899717093e+00
4.6844043732e+00 -1.4786679268e+01 1.2871112823e+00
4.4833006859e+00 -1.4779433250e+01 1.2815952301e+00
4.3506445885e+00 -1.5354043007e+01 1.3242547512e+00
4.2490429878e+00 -1.5354043007e+01 1.3219797611e+00
4.1477832794e+00 -1.5354043007e+01 1.3197644949e+00
3.9462695122e+00 -1.5354043007e+01 1.3155001402e+00
3.8459861279e+00 -1.5354022980e+01 1.3134522438e+00
3.7460155487e+00 -1.5354022980e+01 1.3114620447e+00
3.3490428925e+00 -1.5354022980e+01 1.3040477037e+00
1.0255565643e+00 -4.8443360329e+00 4.1089528799e-01
9.6359372139e-01 -4.8442773819e+00 4.0985733271e-01
8.7121093273e-01 -4.8441991806e+00 4.0842580795e-01
7.8423827887e-01 -4.8739843369e+00 4.0965002775e-01
7.8494137526e-01 -5.0767774582e+00 4.2628180981e-01
2.2775487900e+00 -1.5354003906e+01 1.2880295515e+00
1.9984569550e+00 -1.4714374542e+01 1.2322233915e+00
1.9063769579e+00 -1.4712890625e+01 1.2310935259e+00
1.8144823313e+00 -1.4711464882e+01 1.2300199270e+00
1.7227538824e+00 -1.4710097313e+01 1.2289977074e+00
1.5956444740e+00 -1.5241464615e+01 1.2716591358e+00
1.4067772627e+00 -1.5241464615e+01 1.2701251507e+00
1.3125195503e+00 -1.5241464615e+01 1.2694301605e+00
1.2183495760e+00 -1.5241444588e+01 1.2687835693e+00
1.0302929878e+00 -1.5241444588e+01 1.2676351070e+00
7.0862305164e-01 -1.4424277306e+01 1.1983836889e+00
4.4540038705e-01 -1.4513046265e+01 1.2048738003e+00
3.5626950860e-01 -1.4513046265e+01 1.2046692371e+00
1.7811523378e-01 -1.4513046265e+01 1.2043957710e+00
0.0000000000e+00 -1.4513027191e+01 1.2043056488e+00
-8.9042969048e-02 -1.4513027191e+01 1.2043277025e+00
-4.4539061189e-01 -1.4513027191e+01 1.2048704624e+00
-6.2374019623e-01 -1.4513007164e+01 1.2054172754e+00
-7.1296870708e-01 -1.4513007164e+01 1.2057552338e+00
-8.8603514433e-01 -1.4421875000e+01 1.1989984512e+00
-9.7488278151e-01 -1.4421875000e+01 1.1994714737e+00
-2.2373340130e+00 -6.5034766197e+00 5.7070517540e-01
-2.2086327076e+00 -6.2942380905e+00 5.5352157354e-01
-2.2489647865e+00 -6.1658983231e+00 5.4462355375e-01
-2.2686326504e+00 -6.1032419205e+00 5.4030823708e-01
-2.5281541348e+00 -5.7992186546e+00 5.2496415377e-01
-2.5659861565e+00 -5.7887692451e+00 5.2543449402e-01
-2.6418359280e+00 -5.7677927017e+00 5.2643287182e-01
-2.6798729897e+00 -5.7572460175e+00 5.2696251869e-01
-2.7179784775e+00 -5.7466797829e+00 5.2751022577e-01
-2.8335740566e+00 -5.7164254189e+00 5.2943295240e-01
-2.8831932545e+00 -5.7279295921e+00 5.3212636709e-01
-2.9333105087e+00 -5.7395310402e+00 5.3486698866e-01
-2.9839451313e+00 -5.7512497902e+00 5.3765434027e-01
-3.0350975990e+00 -5.7630662918e+00 5.4049009085e-01
-3.2279686928e+00 -5.8648438454e+00 5.5551379919e-01
-2.3556825638e+01 -2.6313632965e+01 2.9306824207e+00
-2.3607059479e+01 -2.6046386719e+01 2.9169960022e+00
-2.1803213120e+01 -2.2621072769e+01 2.6070785522e+00
-2.3597314835e+01 -2.3597324371e+01 2.7692134380e+00
-2.3597309113e+01 -2.3025156021e+01 2.7358543873e+00
-2.3490043640e+01 -2.2640800476e+01 2.7072486877e+00
-2.3597303391e+01 -2.2466522217e+01 2.7036662102e+00
-2.3659032822e+01 -2.1709218979e+01 2.6645045280e+00
-2.3597284317e+01 -2.0609062195e+01 2.5997903347e+00
-2.3597280502e+01 -2.0103963852e+01 2.5724129677e+00
-2.3558647156e+01 -1.9577226639e+01 2.5418341160e+00
-2.3597274780e+01 -1.9365800858e+01 2.5331103802e+00
-2.3597269058e+01 -1.9124687195e+01 2.5204670429e+00
-2.1831190109e+01 -1.7253808975e+01 2.3090417385e+00
-2.3501258850e+01 -1.7880897522e+01 2.4504466057e+00
-2.3597255707e+01 -1.7500936508e+01 2.4378781319e+00
-2.5571762085e+01 -1.7314413071e+01 2.5626225471e+00
-2.5828989029e+01 -1.7258378983e+01 2.5777499676e+00
-2.3497377396e+01 -1.5286757469e+01 2.3261475563e+00
-2.8342620850e+01 -1.7225214005e+01 2.7521829605e+00
-3.0406610489e+01 -1.7225135803e+01 2.8999068737e+00
-3.0759233475e+01 -1.6929746628e+01 2.9135012627e+00
-3.0759233475e+01 -1.6684648514e+01 2.9037480354e+00
-3.0759222031e+01 -1.5959003448e+01 2.8755230904e+00
-3.0759222031e+01 -1.5720214844e+01 2.8664524555e+00
-3.0759218216e+01 -1.5482910156e+01 2.8575470448e+00
-3.0759212494e+01 -1.5247070312e+01 2.8487985134e+00
-3.0759202957e+01 -1.4779667854e+01 2.8317863941e+00
-3.0759202957e+01 -1.4548027039e+01 2.8235135078e+00
-3.0759199142e+01 -1.4317733765e+01 2.8153982162e+00
-3.2451892853e+01 -1.4147362709e+01 2.9376561642e+00
-3.3003223419e+01 -1.4147343636e+01 2.9796483517e+00
-3.3450420380e+01 -1.3855625153e+01 3.0044445992e+00
-3.3617927551e+01 -1.3444081306e+01 3.0044469833e+00
-3.4492813110e+01 -1.3062792778e+01 3.0606222153e+00
-3.6507884979e+01 -1.3062733650e+01 3.2175621986e+00
-4.1496913910e+01 -1.3146171570e+01 3.6121075153e+00
-4.3061367035e+01 -1.3062558174e+01 3.7340571880e+00
-4.4032112122e+01 -1.3062539101e+01 3.8112144470e+00
-1.8290311813e+01 6.1670312881e+00 1.2542624474e+00
-1.7698886871e+01 6.2105078697e+00 1.2188527584e+00
-1.7357225418e+01 6.2105078697e+00 1.1979259253e+00
-1.8264207840e+01 7.3040037155e+00 1.2782238722e+00
-1.8286567688e+01 7.5745310783e+00 1.2861973047e+00
-1.8267236710e+01 8.3669919968e+00 1.3056391478e+00
-1.8236894608e+01 8.4888477325e+00 1.3071564436e+00
-1.8286523819e+01 9.2046680450e+00 1.3303353786e+00
-1.8286518097e+01 9.3457422256e+00 1.3344799280e+00
-1.8258848190e+01 9.4733400345e+00 1.3366791010e+00
-1.7806571960e+01 9.5178127289e+00 1.3120244741e+00
-1.7464696884e+01 9.4733200073e+00 1.2911021709e+00
-1.7398622513e+01 9.5760936737e+00 1.2905246019e+00
-1.7017480135e+00 1.1007031441e+01 7.2375029325e-01
-1.6326855421e+00 1.1007167816e+01 7.2308897972e-01
-1.5637499094e+00 1.1007324219e+01 7.2245466709e-01
-9.0100586414e-01 6.6340036392e+00 4.3504631519e-01
-8.5017573833e-01 6.5613865852e+00 4.2993429303e-01
-7.5201171637e-01 6.4211716652e+00 4.2011076212e-01
-7.0458006859e-01 6.3534374237e+00 4.1538894176e-01
-6.6163086891e-01 6.3199024200e+00 4.1292226315e-01
-6.2428706884e-01 6.3385543823e+00 4.1388374567e-01
-5.8743160963e-01 6.3643555641e+00 4.1532492638e-01
-5.1291990280e-01 6.4165430069e+00 4.1828712821e-01
-1.6352538764e-01 6.6611719131e+00 4.3298491836e-01
1.6924804449e-01 6.8941793442e+00 4.4812980294e-01
3.0031248927e-01 6.9877147675e+00 4.5449361205e-01
3.4487304091e-01 7.0200390816e+00 4.5672506094e-01
3.8987302780e-01 7.0527148247e+00 4.5899763703e-01
4.3532225490e-01 7.0857028961e+00 4.6130979061e-01
4.8124021292e-01 7.1190624237e+00 4.6366399527e-01
5.2762693167e-01 7.1527538300e+00 4.6606138349e-01
5.7449215651e-01 7.1868162155e+00 4.6850103140e-01
1.5760351419e+00 1.1093280792e+01 7.2810006142e-01
1.9248827696e+00 1.1093339920e+01 7.3163503408e-01
3.2217967510e+00 1.1109804153e+01 7.5167721510e-01
