VERSION 0.7
FIELDS x y z
SIZE 4 4 4
TYPE F F F
COUNT 1 1 1
WIDTH 905
HEIGHT 1
VIEWPOINT 0.0 0.0 0.0 1.0 0.0 0.0 0.0
POINTS 905
DATA ascii
-3.2490232587e-01 2.8374999762e-01 -1.3019768894e-01
-3.2315430045e-01 2.8574219346e-01 -1.3019825518e-01
-3.1784179807e-01 2.9164060950e-01 -1.3019998372e-01
-3.1605467200e-01 2.9359373450e-01 -1.3020054996e-01
-3.1424802542e-01 2.9552733898e-01 -1.3020113111e-01
-3.1059569120e-01 2.9935544729e-01 -1.3020229340e-01
-3.0875974894e-01 3.0124998093e-01 -1.3020287454e-01
-3.0316406488e-01 3.0689451098e-01 -1.3020464778e-01
-3.0127927661e-01 3.0875000358e-01 -1.3020524383e-01
-2.9747068882e-01 3.1242185831e-01 -1.3020642102e-01
-2.9554685950e-01 3.1425780058e-01 -1.3020701706e-01
-2.9166990519e-01 3.1785154343e-01 -1.3020820916e-01
-2.8971678019e-01 3.1964844465e-01 -1.3020882010e-01
-2.8775390983e-01 3.2140624523e-01 -1.3020941615e-01
-2.8577148914e-01 3.2318359613e-01 -1.3021002710e-01
-2.7977538109e-01 3.2837888598e-01 -1.3021183014e-01
-2.7776366472e-01 3.3009764552e-01 -1.3021244109e-01
-2.7369138598e-01 3.3347654343e-01 -1.3021366298e-01
-2.6958006620e-01 3.3681640029e-01 -1.3021489978e-01
-2.6542967558e-01 3.4011718631e-01 -1.3021612167e-01
-2.6124021411e-01 3.4333983064e-01 -1.3021735847e-01
-2.5913086534e-01 3.4494140744e-01 -1.3021798432e-01
-2.5274413824e-01 3.4964841604e-01 -1.3021984696e-01
-2.5059568882e-01 3.5121092200e-01 -1.3022047281e-01
-2.4625976384e-01 3.5425779223e-01 -1.3022170961e-01
-2.3749999702e-01 3.6019530892e-01 -1.3022422791e-01
-2.3528319597e-01 3.6166015267e-01 -1.3022486866e-01
-2.2859375179e-01 3.6591795087e-01 -1.3022676110e-01
-2.2634765506e-01 3.6732420325e-01 -1.3022738695e-01
-2.2409179807e-01 3.6871093512e-01 -1.3022802770e-01
-2.1726562083e-01 3.7277343869e-01 -1.3022993505e-01
-2.0573242009e-01 3.7927734852e-01 -1.3023313880e-01
-2.0106445253e-01 3.8177734613e-01 -1.3023440540e-01
-1.9872069359e-01 3.8300779462e-01 -1.3023504615e-01
-1.9636718929e-01 3.8421875238e-01 -1.3023568690e-01
-1.9400389493e-01 3.8541015983e-01 -1.3023634255e-01
-1.9164061546e-01 3.8660156727e-01 -1.3023696840e-01
-1.8688476086e-01 3.8892576098e-01 -1.3023824990e-01
-1.8449218571e-01 3.9007812738e-01 -1.3023890555e-01
-1.7728514969e-01 3.9339843392e-01 -1.3024084270e-01
-1.7487303913e-01 3.9449217916e-01 -1.3024148345e-01
-1.7244140804e-01 3.9554685354e-01 -1.3024212420e-01
-1.7001952231e-01 3.9660155773e-01 -1.3024276495e-01
-1.6513670981e-01 3.9867186546e-01 -1.3024406135e-01
-1.6268554330e-01 3.9966794848e-01 -1.3024471700e-01
-1.5777343512e-01 4.0164062381e-01 -1.3024599850e-01
-1.4787109196e-01 4.0541014075e-01 -1.3024857640e-01
-1.4289061725e-01 4.0718749166e-01 -1.3024987280e-01
-1.4039061964e-01 4.0806639194e-01 -1.3025051355e-01
-1.3788086176e-01 4.0892577171e-01 -1.3025115430e-01
-1.3033202291e-01 4.1140624881e-01 -1.3025309145e-01
-1.2780272961e-01 4.1218748689e-01 -1.3025374711e-01
-1.2274413556e-01 4.1373047233e-01 -1.3025502861e-01
-1.2019530684e-01 4.1447263956e-01 -1.3025568426e-01
-1.1765624583e-01 4.1521483660e-01 -1.3025631011e-01
-1.1510741711e-01 4.1593748331e-01 -1.3025695086e-01
-1.0229492188e-01 4.1927734017e-01 -1.3026016951e-01
-9.9716797471e-02 4.1990232468e-01 -1.3026081026e-01
-9.7138673067e-02 4.2050778866e-01 -1.3026145101e-01
-9.4560541213e-02 4.2109373212e-01 -1.3026209176e-01
-9.1972656548e-02 4.2166015506e-01 -1.3026271760e-01
-8.9384764433e-02 4.2222654819e-01 -1.3026335835e-01
-8.4199219942e-02 4.2330077291e-01 -1.3026463985e-01
-7.9003907740e-02 4.2429685593e-01 -1.3026590645e-01
-7.6396480203e-02 4.2478513718e-01 -1.3026654720e-01
-7.3789060116e-02 4.2523437738e-01 -1.3026717305e-01
-6.0712888837e-02 4.2732420564e-01 -1.3027034700e-01
-5.8085937053e-02 4.2767578363e-01 -1.3027097285e-01
-5.0205077976e-02 4.2869138718e-01 -1.3027286530e-01
-4.7578122467e-02 4.2898437381e-01 -1.3027347624e-01
-4.4941406697e-02 4.2927733064e-01 -1.3027411699e-01
-3.9667967707e-02 4.2980468273e-01 -1.3027535379e-01
-3.7031248212e-02 4.3003904819e-01 -1.3027596474e-01
-2.9111327603e-02 4.3064451218e-01 -1.3027782738e-01
-2.1181639284e-02 4.3111327291e-01 -1.3027967513e-01
-1.8535155803e-02 4.3124997616e-01 -1.3028030097e-01
-1.5888672322e-02 4.3134763837e-01 -1.3028091192e-01
-1.0595702566e-02 4.3152344227e-01 -1.3028213382e-01
5.2929688245e-03 4.3162107468e-01 -1.3028576970e-01
7.9492181540e-03 4.3158203363e-01 -1.3028636575e-01
1.3242186978e-02 4.3146482110e-01 -1.3028755784e-01
1.8535155803e-02 4.3126952648e-01 -1.3028874993e-01
2.1181639284e-02 4.3115234375e-01 -1.3028934598e-01
2.6474608108e-02 4.3085935712e-01 -1.3029052317e-01
2.9111327603e-02 4.3070310354e-01 -1.3029111922e-01
3.4394528717e-02 4.3031248450e-01 -1.3029228151e-01
3.7041015923e-02 4.3009763956e-01 -1.3029287755e-01
3.9677731693e-02 4.2986327410e-01 -1.3029344380e-01
4.2314451188e-02 4.2960935831e-01 -1.3029402494e-01
4.4951170683e-02 4.2933592200e-01 -1.3029460609e-01
4.7587890178e-02 4.2906248569e-01 -1.3029517233e-01
5.0214841962e-02 4.2876952887e-01 -1.3029575348e-01
5.2841797471e-02 4.2845702171e-01 -1.3029631972e-01
5.8095701039e-02 4.2777341604e-01 -1.3029745221e-01
6.3349604607e-02 4.2703124881e-01 -1.3029859960e-01
6.5966792405e-02 4.2664062977e-01 -1.3029915094e-01
6.8583980203e-02 4.2623046041e-01 -1.3029971719e-01
7.1201168001e-02 4.2580077052e-01 -1.3030028343e-01
7.3808595538e-02 4.2535156012e-01 -1.3030083477e-01
7.9023435712e-02 4.2441403866e-01 -1.3030193746e-01
8.4228515625e-02 4.2341795564e-01 -1.3030304015e-01
8.6826168001e-02 4.2289060354e-01 -1.3030359149e-01
8.9414060116e-02 4.2236328125e-01 -1.3030412793e-01
9.2001952231e-02 4.2179685831e-01 -1.3030467927e-01
9.4589844346e-02 4.2123046517e-01 -1.3030521572e-01
9.9755860865e-02 4.2003905773e-01 -1.3030628860e-01
1.0490234196e-01 4.1878905892e-01 -1.3030734658e-01
1.0747069865e-01 4.1814452410e-01 -1.3030788302e-01
1.1003906280e-01 4.1748046875e-01 -1.3030840456e-01
1.1259765178e-01 4.1679686308e-01 -1.3030892611e-01
1.1515624821e-01 4.1609373689e-01 -1.3030944765e-01
1.2025390565e-01 4.1466796398e-01 -1.3031049073e-01
1.2279296666e-01 4.1390624642e-01 -1.3031101227e-01
1.2786132097e-01 4.1238281131e-01 -1.3031202555e-01
1.3291992247e-01 4.1078123450e-01 -1.3031305373e-01
1.3543945551e-01 4.0996092558e-01 -1.3031354547e-01
1.4545898139e-01 4.0652343631e-01 -1.3031552732e-01
1.4794921875e-01 4.0562498569e-01 -1.3031601906e-01
1.5786132216e-01 4.0187498927e-01 -1.3031795621e-01
1.6032226384e-01 4.0089842677e-01 -1.3031843305e-01
1.6768553853e-01 3.9789062738e-01 -1.3031984866e-01
1.7011718452e-01 3.9685547352e-01 -1.3032031059e-01
1.7254883051e-01 3.9580076933e-01 -1.3032077253e-01
1.7498046160e-01 3.9474609494e-01 -1.3032124937e-01
1.7740233243e-01 3.9365234971e-01 -1.3032169640e-01
1.7981444299e-01 3.9255857468e-01 -1.3032215834e-01
1.8461914361e-01 3.9033201337e-01 -1.3032305241e-01
1.8939453363e-01 3.8804686069e-01 -1.3032394648e-01
1.9176757336e-01 3.8687500358e-01 -1.3032437861e-01
1.9414062798e-01 3.8568359613e-01 -1.3032482564e-01
1.9650390744e-01 3.8449218869e-01 -1.3032525778e-01
2.0121093094e-01 3.8205078244e-01 -1.3032612205e-01
2.0821288228e-01 3.7828123569e-01 -1.3032738864e-01
2.1513670683e-01 3.7439453602e-01 -1.3032864034e-01
2.1971678734e-01 3.7171873450e-01 -1.3032944500e-01
2.2426757216e-01 3.6900389194e-01 -1.3033024967e-01
2.2652342916e-01 3.6761718988e-01 -1.3033063710e-01
2.3991210759e-01 3.5904297233e-01 -1.3033294678e-01
2.4429686368e-01 3.5607421398e-01 -1.3033369184e-01
2.4648436904e-01 3.5457029939e-01 -1.3033406436e-01
2.4865233898e-01 3.5304686427e-01 -1.3033442199e-01
2.5296875834e-01 3.4998047352e-01 -1.3033513725e-01
2.5724607706e-01 3.4685546160e-01 -1.3033583760e-01
2.6358398795e-01 3.4205076098e-01 -1.3033686578e-01
2.6776367426e-01 3.3880859613e-01 -1.3033753633e-01
2.7395507693e-01 3.3380860090e-01 -1.3033851981e-01
2.8005859256e-01 3.2871094346e-01 -1.3033947349e-01
2.9001951218e-01 3.1998047233e-01 -1.3034097850e-01
2.9778319597e-01 3.1277343631e-01 -1.3034212589e-01
3.0724608898e-01 3.0349609256e-01 -1.3034348190e-01
3.0910155177e-01 3.0160155892e-01 -1.3034373522e-01
3.1277343631e-01 2.9779297113e-01 -1.3034424186e-01
3.1459960341e-01 2.9585936666e-01 -1.3034449518e-01
3.1820312142e-01 2.9197263718e-01 -1.3034497201e-01
3.1999021769e-01 2.9001951218e-01 -1.3034521043e-01
3.2352536917e-01 2.8607422113e-01 -1.3034568727e-01
3.2528319955e-01 2.8408202529e-01 -1.3034591079e-01
3.2702147961e-01 2.8208982944e-01 -1.3034613431e-01
3.3045896888e-01 2.7804687619e-01 -1.3034656644e-01
3.3215820789e-01 2.7601560950e-01 -1.3034677505e-01
3.3551758528e-01 2.7191406488e-01 -1.3034719229e-01
3.3717772365e-01 2.6986327767e-01 -1.3034738600e-01
3.3882811666e-01 2.6779296994e-01 -1.3034757972e-01
3.4046873450e-01 2.6570311189e-01 -1.3034778833e-01
3.4208983183e-01 2.6361328363e-01 -1.3034796715e-01
3.4846678376e-01 2.5513669848e-01 -1.3034868240e-01
3.5001951456e-01 2.5298827887e-01 -1.3034884632e-01
3.5157224536e-01 2.5083982944e-01 -1.3034902513e-01
3.5461914539e-01 2.4650390446e-01 -1.3034933805e-01
3.5612303019e-01 2.4433593452e-01 -1.3034950197e-01
3.5910156369e-01 2.3994140327e-01 -1.3034979999e-01
3.6056640744e-01 2.3773436248e-01 -1.3034993410e-01
3.6345702410e-01 2.3328123987e-01 -1.3035020232e-01
3.6488279700e-01 2.3105467856e-01 -1.3035033643e-01
3.6628904939e-01 2.2880858183e-01 -1.3035047054e-01
3.7043944001e-01 2.2203125060e-01 -1.3035082817e-01
3.7446287274e-01 2.1517577767e-01 -1.3035115600e-01
3.7836912274e-01 2.0824217796e-01 -1.3035143912e-01
3.8089841604e-01 2.0359374583e-01 -1.3035160303e-01
3.8213866949e-01 2.0125000179e-01 -1.3035169244e-01
3.8335937262e-01 1.9890624285e-01 -1.3035176694e-01
3.8457030058e-01 1.9654296339e-01 -1.3035184145e-01
3.8695311546e-01 1.9181640446e-01 -1.3035197556e-01
3.8812500238e-01 1.8943358958e-01 -1.3035203516e-01
3.8927733898e-01 1.8705077469e-01 -1.3035209477e-01
3.9041990042e-01 1.8464843929e-01 -1.3035213947e-01
3.9154297113e-01 1.8226562440e-01 -1.3035218418e-01
3.9374998212e-01 1.7744140327e-01 -1.3035227358e-01
3.9483398199e-01 1.7501953244e-01 -1.3035231829e-01
3.9695310593e-01 1.7015624046e-01 -1.3035237789e-01
3.9798825979e-01 1.6771483421e-01 -1.3035239279e-01
4.0001952648e-01 1.6283202171e-01 -1.3035243750e-01
4.0100586414e-01 1.6037109494e-01 -1.3035245240e-01
4.0388670564e-01 1.5294921398e-01 -1.3035246730e-01
4.0574216843e-01 1.4798827469e-01 -1.3035245240e-01
4.0664061904e-01 1.4550781250e-01 -1.3035245240e-01
4.0839841962e-01 1.4048828185e-01 -1.3035242260e-01
4.0924802423e-01 1.3798828423e-01 -1.3035239279e-01
4.1008788347e-01 1.3546875119e-01 -1.3035236299e-01
4.1171872616e-01 1.3042968512e-01 -1.3035230339e-01
4.1250976920e-01 1.2791015208e-01 -1.3035225868e-01
4.1329100728e-01 1.2537108362e-01 -1.3035221398e-01
4.1405272484e-01 1.2283203006e-01 -1.3035216928e-01
4.1479492188e-01 1.2029296905e-01 -1.3035212457e-01
4.1552734375e-01 1.1773437262e-01 -1.3035206497e-01
4.1693359613e-01 1.1263671517e-01 -1.3035194576e-01
4.1761717200e-01 1.1007812619e-01 -1.3035188615e-01
4.1893553734e-01 1.0494140536e-01 -1.3035173714e-01
4.1958007216e-01 1.0236328095e-01 -1.3035164773e-01
4.2019531131e-01 9.9785156548e-02 -1.3035157323e-01
4.2196288705e-01 9.2031247914e-02 -1.3035130501e-01
4.2596679926e-01 7.1230463684e-02 -1.3035041094e-01
4.2639648914e-01 6.8613283336e-02 -1.3035029173e-01
4.2720702291e-01 6.3378907740e-02 -1.3035000861e-01
4.2758786678e-01 6.0742184520e-02 -1.3034987450e-01
4.2794921994e-01 5.8125000447e-02 -1.3034972548e-01
4.2830076814e-01 5.5488280952e-02 -1.3034959137e-01
4.2894530296e-01 5.0234373659e-02 -1.3034927845e-01
4.2923825979e-01 4.7597654164e-02 -1.3034911454e-01
4.2953124642e-01 4.4960934669e-02 -1.3034895062e-01
4.3028318882e-01 3.7050779909e-02 -1.3034844398e-01
4.3049803376e-01 3.4414060414e-02 -1.3034826517e-01
4.3134763837e-01 2.1191405132e-02 -1.3034731150e-01
4.3147459626e-01 1.8535155803e-02 -1.3034710288e-01
4.3166014552e-01 1.3242186978e-02 -1.3034668565e-01
4.3179687858e-01 7.9492181540e-03 -1.3034625351e-01
4.3185546994e-01 2.6562500279e-03 -1.3034582138e-01
4.3186521530e-01 -0.0000000000e+00 -1.3034558296e-01
4.3185546994e-01 -2.6562500279e-03 -1.3034535944e-01
4.3166014552e-01 -1.3242186978e-02 -1.3034439087e-01
4.3156248331e-01 -1.5898436308e-02 -1.3034413755e-01
4.3146482110e-01 -1.8535155803e-02 -1.3034389913e-01
4.3120115995e-01 -2.3828124627e-02 -1.3034337759e-01
4.3104490638e-01 -2.6484373957e-02 -1.3034310937e-01
4.3068358302e-01 -3.1777344644e-02 -1.3034257293e-01
4.3047851324e-01 -3.4414060414e-02 -1.3034228981e-01
4.3026366830e-01 -3.7050779909e-02 -1.3034200668e-01
4.3001952767e-01 -3.9687499404e-02 -1.3034172356e-01
4.2921873927e-01 -4.7597654164e-02 -1.3034085929e-01
4.2891600728e-01 -5.0234373659e-02 -1.3034056127e-01
4.2860350013e-01 -5.2871093154e-02 -1.3034026325e-01
4.2826169729e-01 -5.5488280952e-02 -1.3033996522e-01
4.2791992426e-01 -5.8125000447e-02 -1.3033965230e-01
4.2754882574e-01 -6.0742184520e-02 -1.3033933938e-01
4.2677733302e-01 -6.5976560116e-02 -1.3033871353e-01
4.2635741830e-01 -6.8593747914e-02 -1.3033838570e-01
4.2592772841e-01 -7.1210935712e-02 -1.3033805788e-01
4.2501953244e-01 -7.6445311308e-02 -1.3033740222e-01
4.2454099655e-01 -7.9042963684e-02 -1.3033705950e-01
4.2353513837e-01 -8.4238275886e-02 -1.3033638895e-01
4.2191404104e-01 -9.2031247914e-02 -1.3033534586e-01
4.2075192928e-01 -9.7207032144e-02 -1.3033463061e-01
4.2014646530e-01 -9.9785156548e-02 -1.3033427298e-01
4.1888672113e-01 -1.0492186993e-01 -1.3033352792e-01
4.1823241115e-01 -1.0749999434e-01 -1.3033317029e-01
4.1546875238e-01 -1.1771484464e-01 -1.3033165038e-01
4.1473633051e-01 -1.2027343363e-01 -1.3033126295e-01
4.1322264075e-01 -1.2535156310e-01 -1.3033047318e-01
4.1244140267e-01 -1.2789061666e-01 -1.3033008575e-01
4.1165038943e-01 -1.3041014969e-01 -1.3032968342e-01
4.1083982587e-01 -1.3292968273e-01 -1.3032928109e-01
4.0917968750e-01 -1.3796874881e-01 -1.3032846153e-01
4.0832030773e-01 -1.4046874642e-01 -1.3032804430e-01
4.0745115280e-01 -1.4296874404e-01 -1.3032764196e-01
4.0656247735e-01 -1.4546874166e-01 -1.3032722473e-01
4.0474608541e-01 -1.5044921637e-01 -1.3032637537e-01
4.0381833911e-01 -1.5292967856e-01 -1.3032594323e-01
4.0190428495e-01 -1.5787109733e-01 -1.3032507896e-01
3.9993163943e-01 -1.6279296577e-01 -1.3032421470e-01
3.9790037274e-01 -1.6767577827e-01 -1.3032332063e-01
3.9686521888e-01 -1.7011718452e-01 -1.3032287359e-01
3.9581054449e-01 -1.7255859077e-01 -1.3032241166e-01
3.9474609494e-01 -1.7498046160e-01 -1.3032196462e-01
3.9256834984e-01 -1.7980468273e-01 -1.3032105565e-01
3.9145508409e-01 -1.8220703304e-01 -1.3032057881e-01
3.8918945193e-01 -1.8699218333e-01 -1.3031965494e-01
3.8802734017e-01 -1.8939453363e-01 -1.3031917810e-01
3.8685545325e-01 -1.9175781310e-01 -1.3031871617e-01
3.7953123450e-01 -2.0585936308e-01 -1.3031582534e-01
3.7697264552e-01 -2.1050781012e-01 -1.3031482697e-01
3.7567383051e-01 -2.1281249821e-01 -1.3031433523e-01
3.7168943882e-01 -2.1968749166e-01 -1.3031284511e-01
3.7033203244e-01 -2.2197264433e-01 -1.3031232357e-01
3.6757811904e-01 -2.2648437321e-01 -1.3031131029e-01
3.6618164182e-01 -2.2874999046e-01 -1.3031080365e-01
3.6476561427e-01 -2.3097655177e-01 -1.3031028211e-01
3.6190429330e-01 -2.3544920981e-01 -1.3030923903e-01
3.5898438096e-01 -2.3986327648e-01 -1.3030819595e-01
3.5601562262e-01 -2.4425780773e-01 -1.3030713797e-01
3.5298827291e-01 -2.4859374762e-01 -1.3030606508e-01
3.5145506263e-01 -2.5076171756e-01 -1.3030552864e-01
3.4833982587e-01 -2.5505858660e-01 -1.3030444086e-01
3.4676757455e-01 -2.5718748569e-01 -1.3030390441e-01
3.4518554807e-01 -2.5929686427e-01 -1.3030336797e-01
3.4358397126e-01 -2.6140624285e-01 -1.3030281663e-01
3.4197264910e-01 -2.6351562142e-01 -1.3030226529e-01
3.4035155177e-01 -2.6560544968e-01 -1.3030171394e-01
3.3871093392e-01 -2.6769530773e-01 -1.3030116260e-01
3.3706054091e-01 -2.6976561546e-01 -1.3030061126e-01
3.3033201098e-01 -2.7794921398e-01 -1.3029836118e-01
3.1807616353e-01 -2.9187500477e-01 -1.3029435277e-01
3.1627929211e-01 -2.9380857944e-01 -1.3029378653e-01
3.1264647841e-01 -2.9767578840e-01 -1.3029262424e-01
3.1081053615e-01 -2.9958984256e-01 -1.3029204309e-01
3.0896484852e-01 -3.0148437619e-01 -1.3029144704e-01
3.0335935950e-01 -3.0710935593e-01 -1.3028968871e-01
2.9765623808e-01 -3.1263670325e-01 -1.3028791547e-01
2.9573240876e-01 -3.1445312500e-01 -1.3028730452e-01
2.8988280892e-01 -3.1984373927e-01 -1.3028551638e-01
2.8791990876e-01 -3.2162109017e-01 -1.3028490543e-01
2.7791014314e-01 -3.3029296994e-01 -1.3028188050e-01
2.6971679926e-01 -3.3701172471e-01 -1.3027943671e-01
2.6345703006e-01 -3.4191405773e-01 -1.3027758896e-01
2.6135742664e-01 -3.4351560473e-01 -1.3027696311e-01
2.5284180045e-01 -3.4982421994e-01 -1.3027447462e-01
2.4852538109e-01 -3.5289061069e-01 -1.3027322292e-01
2.4635741115e-01 -3.5441404581e-01 -1.3027259707e-01
2.3979490995e-01 -3.5888671875e-01 -1.3027071953e-01
2.3758788407e-01 -3.6035156250e-01 -1.3027009368e-01
2.3314452171e-01 -3.6322265863e-01 -1.3026881218e-01
2.3090820014e-01 -3.6464843154e-01 -1.3026818633e-01
2.2866210341e-01 -3.6605468392e-01 -1.3026754558e-01
2.2415038943e-01 -3.6882811785e-01 -1.3026629388e-01
2.1960936487e-01 -3.7156248093e-01 -1.3026501238e-01
2.1732421219e-01 -3.7289062142e-01 -1.3026438653e-01
2.1272461116e-01 -3.7552732229e-01 -1.3026310503e-01
2.0810545981e-01 -3.7810546160e-01 -1.3026182353e-01
2.0344726741e-01 -3.8062497973e-01 -1.3026055694e-01
2.0110350847e-01 -3.8187497854e-01 -1.3025990129e-01
1.9875976443e-01 -3.8308593631e-01 -1.3025926054e-01
1.9404296577e-01 -3.8548827171e-01 -1.3025797904e-01
1.9166991115e-01 -3.8667967916e-01 -1.3025733829e-01
1.8451172113e-01 -3.9013671875e-01 -1.3025541604e-01
1.7971679568e-01 -3.9236328006e-01 -1.3025411963e-01
1.7488281429e-01 -3.9453125000e-01 -1.3025282323e-01
1.7246092856e-01 -3.9560547471e-01 -1.3025218248e-01
1.7002929747e-01 -3.9666014910e-01 -1.3025154173e-01
1.6758789122e-01 -3.9769530296e-01 -1.3025088608e-01
1.6514648497e-01 -3.9871093631e-01 -1.3025024533e-01
1.6023437679e-01 -4.0070310235e-01 -1.3024894893e-01
1.5530273318e-01 -4.0263670683e-01 -1.3024766743e-01
1.5283203125e-01 -4.0357419848e-01 -1.3024701178e-01
1.5035155416e-01 -4.0449216962e-01 -1.3024638593e-01
1.4787109196e-01 -4.0541014075e-01 -1.3024573028e-01
1.4538085461e-01 -4.0630859137e-01 -1.3024507463e-01
1.4288085699e-01 -4.0718749166e-01 -1.3024444878e-01
1.3536132872e-01 -4.0974608064e-01 -1.3024251163e-01
1.3284179568e-01 -4.1056638956e-01 -1.3024185598e-01
1.2779296935e-01 -4.1216796637e-01 -1.3024057448e-01
1.2526367605e-01 -4.1294920444e-01 -1.3023991883e-01
9.7119137645e-02 -4.2042967677e-01 -1.3023287058e-01
9.1953121126e-02 -4.2158201337e-01 -1.3023158908e-01
8.6767576635e-02 -4.2267575860e-01 -1.3023030758e-01
8.4179684520e-02 -4.2320311069e-01 -1.3022966683e-01
8.1572264433e-02 -4.2371094227e-01 -1.3022902608e-01
7.8974604607e-02 -4.2419922352e-01 -1.3022840023e-01
7.6367184520e-02 -4.2466795444e-01 -1.3022775948e-01
7.1152344346e-02 -4.2556640506e-01 -1.3022650778e-01
6.8544916809e-02 -4.2599609494e-01 -1.3022586703e-01
6.3310548663e-02 -4.2679685354e-01 -1.3022460043e-01
5.5439453572e-02 -4.2789062858e-01 -1.3022272289e-01
5.0185546279e-02 -4.2853513360e-01 -1.3022145629e-01
4.7548826784e-02 -4.2882812023e-01 -1.3022084534e-01
4.4921875000e-02 -4.2912107706e-01 -1.3022020459e-01
3.7011716515e-02 -4.2986327410e-01 -1.3021834195e-01
3.4375000745e-02 -4.3007811904e-01 -1.3021773100e-01
2.6455078274e-02 -4.3062499166e-01 -1.3021586835e-01
2.3808592930e-02 -4.3078124523e-01 -1.3021525741e-01
1.8525389954e-02 -4.3103516102e-01 -1.3021403551e-01
1.5878906474e-02 -4.3115234375e-01 -1.3021340966e-01
5.2929688245e-03 -4.3138670921e-01 -1.3021098077e-01
-5.2929688245e-03 -4.3138670921e-01 -1.3020856678e-01
-7.9394532368e-03 -4.3134763837e-01 -1.3020797074e-01
-1.0585937649e-02 -4.3128904700e-01 -1.3020737469e-01
-4.2285155505e-02 -4.2931640148e-01 -1.3020031154e-01
-4.7548826784e-02 -4.2876952887e-01 -1.3019916415e-01
-5.2802734077e-02 -4.2814451456e-01 -1.3019803166e-01
-5.5429685861e-02 -4.2781248689e-01 -1.3019745052e-01
-6.0673825443e-02 -4.2708984017e-01 -1.3019631803e-01
-6.3291013241e-02 -4.2671874166e-01 -1.3019575179e-01
-6.5917968750e-02 -4.2630857229e-01 -1.3019520044e-01
-7.3749996722e-02 -4.2501953244e-01 -1.3019351661e-01
-8.1552729011e-02 -4.2359372973e-01 -1.3019186258e-01
-8.6748041213e-02 -4.2255857587e-01 -1.3019077480e-01
-8.9335933328e-02 -4.2201170325e-01 -1.3019022346e-01
-9.1923825443e-02 -4.2144531012e-01 -1.3018968701e-01
-9.4511717558e-02 -4.2087888718e-01 -1.3018915057e-01
-9.7089841962e-02 -4.2029297352e-01 -1.3018861413e-01
-1.0223632306e-01 -4.1906249523e-01 -1.3018754125e-01
-1.1249022931e-01 -4.1642576456e-01 -1.3018542528e-01
-1.1758788675e-01 -4.1499999166e-01 -1.3018439710e-01
-1.2520506978e-01 -4.1277343035e-01 -1.3018284738e-01
-1.4031249285e-01 -4.0787109733e-01 -1.3017983735e-01
-1.4281249046e-01 -4.0699216723e-01 -1.3017934561e-01
-1.5028320253e-01 -4.0429687500e-01 -1.3017787039e-01
-1.5275390446e-01 -4.0335935354e-01 -1.3017739356e-01
-1.5769530833e-01 -4.0146481991e-01 -1.3017642498e-01
-1.6260741651e-01 -3.9949217439e-01 -1.3017547131e-01
-1.6504882276e-01 -3.9847654104e-01 -1.3017500937e-01
-1.6993163526e-01 -3.9642578363e-01 -1.3017407060e-01
-1.7719726264e-01 -3.9322265983e-01 -1.3017269969e-01
-1.8440429866e-01 -3.8988280296e-01 -1.3017134368e-01
-1.8916991353e-01 -3.8759765029e-01 -1.3017044961e-01
-1.9391600788e-01 -3.8523435593e-01 -1.3016958535e-01
-1.9626952708e-01 -3.8404294848e-01 -1.3016913831e-01
-2.0096679032e-01 -3.8160154223e-01 -1.3016828895e-01
-2.0330077410e-01 -3.8037109375e-01 -1.3016785681e-01
-2.0795898139e-01 -3.7783202529e-01 -1.3016702235e-01
-2.1027342975e-01 -3.7656250596e-01 -1.3016660511e-01
-2.1257811785e-01 -3.7525388598e-01 -1.3016618788e-01
-2.2848632932e-01 -3.6578124762e-01 -1.3016338646e-01
-2.3072265089e-01 -3.6435547471e-01 -1.3016299903e-01
-2.3295897245e-01 -3.6294922233e-01 -1.3016261160e-01
-2.3517577350e-01 -3.6150389910e-01 -1.3016222417e-01
-2.4178710580e-01 -3.5710936785e-01 -1.3016110659e-01
-2.4832031131e-01 -3.5259765387e-01 -1.3016000390e-01
-2.5476562977e-01 -3.4796872735e-01 -1.3015893102e-01
-2.6112303138e-01 -3.4322264791e-01 -1.3015790284e-01
-2.6322266459e-01 -3.4160155058e-01 -1.3015756011e-01
-2.6531249285e-01 -3.3998045325e-01 -1.3015723228e-01
-2.6739257574e-01 -3.3833983541e-01 -1.3015688956e-01
-2.7152344584e-01 -3.3503904939e-01 -1.3015623391e-01
-2.7357420325e-01 -3.3335936069e-01 -1.3015590608e-01
-2.7561521530e-01 -3.3167967200e-01 -1.3015559316e-01
-2.7764648199e-01 -3.2998046279e-01 -1.3015528023e-01
-2.7966797352e-01 -3.2826170325e-01 -1.3015496731e-01
-2.8166991472e-01 -3.2654297352e-01 -1.3015466928e-01
-2.8367185593e-01 -3.2480469346e-01 -1.3015435636e-01
-2.8565427661e-01 -3.2306641340e-01 -1.3015405834e-01
-2.8763672709e-01 -3.2130858302e-01 -1.3015376031e-01
-2.8959959745e-01 -3.1953123212e-01 -1.3015346229e-01
-2.9349607229e-01 -3.1595700979e-01 -1.3015288115e-01
-2.9542967677e-01 -3.1414061785e-01 -1.3015259802e-01
-2.9735350609e-01 -3.1232422590e-01 -1.3015231490e-01
-3.0116209388e-01 -3.0865234137e-01 -1.3015176356e-01
-3.0678710341e-01 -3.0306640267e-01 -1.3015097380e-01
-3.0864256620e-01 -3.0117186904e-01 -1.3015072048e-01
-3.1047850847e-01 -2.9927733541e-01 -1.3015045226e-01
-3.1231445074e-01 -2.9736328125e-01 -1.3015019894e-01
-3.1413084269e-01 -2.9542967677e-01 -1.3014996052e-01
-3.1593748927e-01 -2.9349607229e-01 -1.3014970720e-01
-3.1773436069e-01 -2.9156249762e-01 -1.3014946878e-01
-3.2127928734e-01 -2.8763672709e-01 -1.3014899194e-01
-3.2477539778e-01 -2.8367185593e-01 -1.3014854491e-01
-3.2651367784e-01 -2.8167968988e-01 -1.3014832139e-01
-3.2823240757e-01 -2.7966797352e-01 -1.3014811277e-01
-3.2994139194e-01 -2.7763670683e-01 -1.3014788926e-01
-3.3332031965e-01 -2.7357420325e-01 -1.3014747202e-01
-3.3499997854e-01 -2.7152344584e-01 -1.3014727831e-01
-3.3830076456e-01 -2.6738280058e-01 -1.3014687598e-01
-3.4155273438e-01 -2.6322266459e-01 -1.3014650345e-01
-3.4791013598e-01 -2.5474607944e-01 -1.3014578819e-01
-3.5100585222e-01 -2.5046873093e-01 -1.3014544547e-01
-3.5253906250e-01 -2.4830077589e-01 -1.3014529645e-01
-3.5405272245e-01 -2.4613280594e-01 -1.3014513254e-01
-3.6143553257e-01 -2.3515623808e-01 -1.3014438748e-01
-3.6429685354e-01 -2.3070311546e-01 -1.3014413416e-01
-3.6570310593e-01 -2.2845701873e-01 -1.3014400005e-01
-3.6709961295e-01 -2.2621093690e-01 -1.3014388084e-01
-3.6984375119e-01 -2.2169920802e-01 -1.3014364243e-01
-3.7386718392e-01 -2.1482421458e-01 -1.3014332950e-01
-3.7517577410e-01 -2.1253906190e-01 -1.3014322519e-01
-3.7646484375e-01 -2.1023437381e-01 -1.3014313579e-01
-3.7902343273e-01 -2.0558592677e-01 -1.3014295697e-01
-3.8027343154e-01 -2.0326171815e-01 -1.3014286757e-01
-3.8395506144e-01 -1.9623047113e-01 -1.3014264405e-01
-3.8514646888e-01 -1.9386717677e-01 -1.3014256954e-01
-3.8632813096e-01 -1.9150389731e-01 -1.3014250994e-01
-3.8865232468e-01 -1.8673828244e-01 -1.3014239073e-01
-3.8978514075e-01 -1.8435546756e-01 -1.3014233112e-01
-3.9091795683e-01 -1.8195311725e-01 -1.3014228642e-01
-3.9202147722e-01 -1.7955078185e-01 -1.3014224172e-01
-3.9311522245e-01 -1.7714843154e-01 -1.3014219701e-01
-3.9419922233e-01 -1.7472656071e-01 -1.3014216721e-01
-3.9526367188e-01 -1.7230468988e-01 -1.3014213741e-01
-3.9630857110e-01 -1.6988280416e-01 -1.3014210761e-01
-4.0229490399e-01 -1.5517577529e-01 -1.3014200330e-01
-4.0324217081e-01 -1.5271483362e-01 -1.3014200330e-01
-4.0416991711e-01 -1.5023437142e-01 -1.3014201820e-01
-4.0773436427e-01 -1.4027343690e-01 -1.3014206290e-01
-4.0858396888e-01 -1.3775390387e-01 -1.3014209270e-01
-4.0942382812e-01 -1.3525390625e-01 -1.3014210761e-01
-4.1184568405e-01 -1.2769530714e-01 -1.3014221191e-01
-4.1337889433e-01 -1.2263671309e-01 -1.3014230132e-01
-4.1485351324e-01 -1.1755859107e-01 -1.3014240563e-01
-4.1556638479e-01 -1.1499999464e-01 -1.3014246523e-01
-4.1626951098e-01 -1.1244140565e-01 -1.3014253974e-01
-4.1761717200e-01 -1.0732421279e-01 -1.3014267385e-01
-4.2012694478e-01 -9.7050778568e-02 -1.3014298677e-01
-4.2128905654e-01 -9.1894529760e-02 -1.3014316559e-01
-4.2341795564e-01 -8.1523433328e-02 -1.3014358282e-01
-4.2438474298e-01 -7.6328121126e-02 -1.3014380634e-01
-4.2484372854e-01 -7.3710933328e-02 -1.3014394045e-01
-4.2653319240e-01 -6.3261717558e-02 -1.3014444709e-01
-4.2727538943e-01 -5.8027341962e-02 -1.3014473021e-01
-4.2795896530e-01 -5.2773434669e-02 -1.3014504313e-01
-4.2827147245e-01 -5.0156250596e-02 -1.3014519215e-01
-4.2857420444e-01 -4.7519531101e-02 -1.3014535606e-01
-4.2885741591e-01 -4.4902343303e-02 -1.3014551997e-01
-4.2913085222e-01 -4.2265623808e-02 -1.3014568388e-01
-4.2960935831e-01 -3.6992184818e-02 -1.3014602661e-01
-4.2983397841e-01 -3.4355469048e-02 -1.3014620543e-01
-4.3022459745e-01 -2.9082030058e-02 -1.3014657795e-01
-4.3054687977e-01 -2.3789061233e-02 -1.3014696538e-01
-4.3068358302e-01 -2.1152343601e-02 -1.3014715910e-01
-4.3108397722e-01 -1.0585937649e-02 -1.3014797866e-01
-4.0488278866e-01 -0.0000000000e+00 -1.3015487790e-01
-4.0488278866e-01 2.4804687127e-03 -1.3015508652e-01
-4.0486326814e-01 4.9804686569e-03 -1.3015531003e-01
-4.0482419729e-01 7.4609373696e-03 -1.3015553355e-01
-4.0476560593e-01 9.9414056167e-03 -1.3015575707e-01
-4.0413084626e-01 2.4824218825e-02 -1.3015718758e-01
-4.0361326933e-01 3.2265625894e-02 -1.3015794754e-01
-4.0340819955e-01 3.4746091813e-02 -1.3015821576e-01
-4.0318357944e-01 3.7226561457e-02 -1.3015848398e-01
-4.0294921398e-01 3.9687499404e-02 -1.3015875220e-01
-4.0270507336e-01 4.2167969048e-02 -1.3015902042e-01
-4.0215820074e-01 4.7109372914e-02 -1.3015957177e-01
-4.0185546875e-01 4.9570310861e-02 -1.3015985489e-01
-4.0122067928e-01 5.4492186755e-02 -1.3016042113e-01
-4.0087890625e-01 5.6953124702e-02 -1.3016071916e-01
-4.0052732825e-01 5.9414062649e-02 -1.3016101718e-01
-4.0015622973e-01 6.1874996871e-02 -1.3016131520e-01
-3.9976561069e-01 6.4335934818e-02 -1.3016161323e-01
-3.9936521649e-01 6.6777341068e-02 -1.3016191125e-01
-3.9761719108e-01 7.6562501490e-02 -1.3016316295e-01
-3.9713865519e-01 7.9003907740e-02 -1.3016347587e-01
-3.9664062858e-01 8.1425778568e-02 -1.3016380370e-01
-3.9614257216e-01 8.3867184818e-02 -1.3016413152e-01
-3.9561522007e-01 8.6289063096e-02 -1.3016445935e-01
-3.9453125000e-01 9.1152340174e-02 -1.3016512990e-01
-3.9396482706e-01 9.3554683030e-02 -1.3016547263e-01
-3.9217773080e-01 1.0080078244e-01 -1.3016650081e-01
-3.9091795683e-01 1.0560546815e-01 -1.3016720116e-01
-3.8821288943e-01 1.1517577618e-01 -1.3016864657e-01
-3.8749998808e-01 1.1753906310e-01 -1.3016901910e-01
-3.8676756620e-01 1.1992187053e-01 -1.3016939163e-01
-3.8602536917e-01 1.2230468541e-01 -1.3016976416e-01
-3.8527342677e-01 1.2466796488e-01 -1.3017013669e-01
-3.8371092081e-01 1.2937499583e-01 -1.3017091155e-01
-3.8126951456e-01 1.3642577827e-01 -1.3017207384e-01
-3.7957030535e-01 1.4109374583e-01 -1.3017286360e-01
-3.7599608302e-01 1.5037108958e-01 -1.3017448783e-01
-3.7021484971e-01 1.6408202052e-01 -1.3017699122e-01
-3.6501953006e-01 1.7537109554e-01 -1.3017915189e-01
-3.6393553019e-01 1.7761717737e-01 -1.3017959893e-01
-3.6284178495e-01 1.7984373868e-01 -1.3018004596e-01
-3.6172851920e-01 1.8207031488e-01 -1.3018047810e-01
-3.6060544848e-01 1.8427734077e-01 -1.3018092513e-01
-3.5832029581e-01 1.8869140744e-01 -1.3018183410e-01
-3.5715818405e-01 1.9087889791e-01 -1.3018229604e-01
-3.5598632693e-01 1.9306640327e-01 -1.3018274307e-01
-3.5479491949e-01 1.9525390863e-01 -1.3018320501e-01
-3.5358396173e-01 1.9742186368e-01 -1.3018368185e-01
-3.4989255667e-01 2.0390623808e-01 -1.3018506765e-01
-3.4736326337e-01 2.0818358660e-01 -1.3018602133e-01
-3.4478515387e-01 2.1244139969e-01 -1.3018697500e-01
-3.4214842319e-01 2.1666015685e-01 -1.3018794358e-01
-3.4082031250e-01 2.1875000000e-01 -1.3018842041e-01
-3.3810546994e-01 2.2291015089e-01 -1.3018940389e-01
-3.3395507932e-01 2.2910155356e-01 -1.3019087911e-01
-3.2823240757e-01 2.3724608123e-01 -1.3019289076e-01
-3.2677733898e-01 2.3923827708e-01 -1.3019339740e-01
-3.2530272007e-01 2.4124999344e-01 -1.3019391894e-01
-3.2081052661e-01 2.4720703065e-01 -1.3019545376e-01
-3.1928709149e-01 2.4916015565e-01 -1.3019596040e-01
-3.1621092558e-01 2.5306639075e-01 -1.3019700348e-01
-3.0830076337e-01 2.6265624166e-01 -1.3019964099e-01
-3.0505859852e-01 2.6642578840e-01 -1.3020071387e-01
-3.0341795087e-01 2.6828125119e-01 -1.3020123541e-01
-3.0176755786e-01 2.7013671398e-01 -1.3020178676e-01
-2.9843750596e-01 2.7382811904e-01 -1.3020285964e-01
-2.9504883289e-01 2.7748045325e-01 -1.3020394742e-01
-2.9163086414e-01 2.8107422590e-01 -1.3020503521e-01
-2.8990232944e-01 2.8285154700e-01 -1.3020558655e-01
-2.8816404939e-01 2.8462889791e-01 -1.3020613790e-01
-2.8640624881e-01 2.8640624881e-01 -1.3020668924e-01
-2.8464841843e-01 2.8814452887e-01 -1.3020724058e-01
-2.8287109733e-01 2.8990232944e-01 -1.3020780683e-01
-2.8109374642e-01 2.9162108898e-01 -1.3020835817e-01
-2.7749022841e-01 2.9505857825e-01 -1.3020947576e-01
-2.7568358183e-01 2.9675781727e-01 -1.3021002710e-01
-2.7385741472e-01 2.9843750596e-01 -1.3021059334e-01
-2.7202147245e-01 3.0011719465e-01 -1.3021115959e-01
-2.6832029223e-01 3.0343750119e-01 -1.3021229208e-01
-2.6645508409e-01 3.0507811904e-01 -1.3021285832e-01
-2.6458007097e-01 3.0669921637e-01 -1.3021342456e-01
-2.6268553734e-01 3.0832031369e-01 -1.3021400571e-01
-2.6079100370e-01 3.0994141102e-01 -1.3021457195e-01
-2.5697264075e-01 3.1310546398e-01 -1.3021571934e-01
-2.4921874702e-01 3.1933593750e-01 -1.3021801412e-01
-2.4725584686e-01 3.2085937262e-01 -1.3021859527e-01
-2.4528320134e-01 3.2236328721e-01 -1.3021917641e-01
-2.4130858481e-01 3.2535156608e-01 -1.3022033870e-01
-2.3930662870e-01 3.2683593035e-01 -1.3022093475e-01
-2.3122069240e-01 3.3261719346e-01 -1.3022327423e-01
-2.2711913288e-01 3.3542966843e-01 -1.3022445142e-01
-2.2505858541e-01 3.3681640029e-01 -1.3022504747e-01
-2.2298827767e-01 3.3820313215e-01 -1.3022564352e-01
-2.2090819478e-01 3.3955076337e-01 -1.3022622466e-01
-2.1882812679e-01 3.4091797471e-01 -1.3022682071e-01
-2.1462890506e-01 3.4357422590e-01 -1.3022799790e-01
-2.1251952648e-01 3.4488281608e-01 -1.3022860885e-01
-2.1040038764e-01 3.4619140625e-01 -1.3022918999e-01
-2.0399414003e-01 3.4999999404e-01 -1.3023099303e-01
-2.0184570551e-01 3.5124999285e-01 -1.3023158908e-01
-1.9968749583e-01 3.5248047113e-01 -1.3023218513e-01
-1.9534179568e-01 3.5490232706e-01 -1.3023337722e-01
-1.9316406548e-01 3.5611328483e-01 -1.3023398817e-01
-1.9097656012e-01 3.5728514194e-01 -1.3023458421e-01
-1.8877929449e-01 3.5845702887e-01 -1.3023518026e-01
-1.8658202887e-01 3.5960936546e-01 -1.3023577631e-01
-1.8215820193e-01 3.6187499762e-01 -1.3023699820e-01
-1.7322264612e-01 3.6623045802e-01 -1.3023941219e-01
-1.6872069240e-01 3.6833983660e-01 -1.3024061918e-01
-1.6191406548e-01 3.7138670683e-01 -1.3024243712e-01
-1.5504881740e-01 3.7431639433e-01 -1.3024425507e-01
-1.5275390446e-01 3.7525388598e-01 -1.3024485111e-01
-1.4582030475e-01 3.7800779939e-01 -1.3024666905e-01
-1.4349609613e-01 3.7890625000e-01 -1.3024728000e-01
-1.3883788884e-01 3.8064453006e-01 -1.3024850190e-01
-1.3180664182e-01 3.8312497735e-01 -1.3025030494e-01
-1.2945312262e-01 3.8394531608e-01 -1.3025091588e-01
-1.2473632395e-01 3.8550779223e-01 -1.3025212288e-01
-1.2237304449e-01 3.8626950979e-01 -1.3025273383e-01
-1.1999999732e-01 3.8701170683e-01 -1.3025334477e-01
-1.1761718243e-01 3.8773435354e-01 -1.3025394082e-01
-1.1285156012e-01 3.8916015625e-01 -1.3025514781e-01
-1.1046874523e-01 3.8984373212e-01 -1.3025575876e-01
-1.0567382723e-01 3.9117187262e-01 -1.3025696576e-01
-1.0086914152e-01 3.9244139194e-01 -1.3025817275e-01
-9.8457030952e-02 3.9304685593e-01 -1.3025876880e-01
-9.6044920385e-02 3.9365234971e-01 -1.3025937974e-01
-9.3623042107e-02 3.9423826337e-01 -1.3025997579e-01
-8.1494137645e-02 3.9693358541e-01 -1.3026297092e-01
-7.9052731395e-02 3.9742186666e-01 -1.3026356697e-01
-7.6611325145e-02 3.9791014791e-01 -1.3026417792e-01
-6.9277338684e-02 3.9925780892e-01 -1.3026595116e-01
-6.6826172173e-02 3.9966794848e-01 -1.3026656210e-01
-6.4374998212e-02 4.0007811785e-01 -1.3026714325e-01
-5.7001952082e-02 4.0121093392e-01 -1.3026891649e-01
-5.2070312202e-02 4.0187498927e-01 -1.3027010858e-01
-4.7138672322e-02 4.0248045325e-01 -1.3027128577e-01
-4.4667966664e-02 4.0277343988e-01 -1.3027186692e-01
-4.2197264731e-02 4.0304687619e-01 -1.3027246296e-01
-3.9716795087e-02 4.0330076218e-01 -1.3027305901e-01
-3.2294921577e-02 4.0396484733e-01 -1.3027480245e-01
-2.9814451933e-02 4.0416014194e-01 -1.3027538359e-01
-2.7333984151e-02 4.0433591604e-01 -1.3027596474e-01
-2.4853514507e-02 4.0449216962e-01 -1.3027654588e-01
-1.4912108891e-02 4.0498045087e-01 -1.3027885556e-01
-9.9414056167e-03 4.0513670444e-01 -1.3028000295e-01
-4.9707028084e-03 4.0523436666e-01 -1.3028113544e-01
-2.4902343284e-03 4.0527343750e-01 -1.3028170168e-01
2.4902343284e-03 4.0527343750e-01 -1.3028283417e-01
7.4609373696e-03 4.0521484613e-01 -1.3028396666e-01
9.9511714652e-03 4.0515625477e-01 -1.3028453290e-01
1.4921874739e-02 4.0501952171e-01 -1.3028565049e-01
2.4853514507e-02 4.0453124046e-01 -1.3028787076e-01
3.4775391221e-02 4.0380859375e-01 -1.3029006124e-01
4.2207028717e-02 4.0310546756e-01 -1.3029170036e-01
4.4677734375e-02 4.0283203125e-01 -1.3029223680e-01
6.1933591962e-02 4.0056639910e-01 -1.3029597700e-01
6.6845700145e-02 3.9976561069e-01 -1.3029703498e-01
7.1748048067e-02 3.9892578125e-01 -1.3029807806e-01
7.4189454317e-02 3.9847654104e-01 -1.3029859960e-01
7.6640620828e-02 3.9802733064e-01 -1.3029910624e-01
7.9082027078e-02 3.9753904939e-01 -1.3029962778e-01
8.3955079317e-02 3.9654296637e-01 -1.3030065596e-01
8.8808588684e-02 3.9548826218e-01 -1.3030166924e-01
9.3662105501e-02 3.9437499642e-01 -1.3030266762e-01
9.8496094346e-02 3.9320310950e-01 -1.3030368090e-01
1.0090819746e-01 3.9257812500e-01 -1.3030417264e-01
1.0331054777e-01 3.9195311069e-01 -1.3030466437e-01
1.0571289062e-01 3.9132812619e-01 -1.3030515611e-01
1.0811523348e-01 3.9066404104e-01 -1.3030564785e-01
1.1050780863e-01 3.8999998569e-01 -1.3030613959e-01
1.2242187560e-01 3.8642576337e-01 -1.3030853868e-01
1.2479492277e-01 3.8568359613e-01 -1.3030901551e-01
1.2715819478e-01 3.8490232825e-01 -1.3030949235e-01
1.3187499344e-01 3.8332030177e-01 -1.3031043112e-01
1.3657225668e-01 3.8167968392e-01 -1.3031135499e-01
1.3890624046e-01 3.8082030416e-01 -1.3031181693e-01
1.4124022424e-01 3.7996092439e-01 -1.3031226397e-01
1.4357422292e-01 3.7910154462e-01 -1.3031272590e-01
1.5052734315e-01 3.7638670206e-01 -1.3031408191e-01
1.5283203125e-01 3.7546873093e-01 -1.3031451404e-01
1.5743163228e-01 3.7355467677e-01 -1.3031540811e-01
1.5971679986e-01 3.7259763479e-01 -1.3031584024e-01
1.6200195253e-01 3.7160155177e-01 -1.3031627238e-01
1.6428710520e-01 3.7060546875e-01 -1.3031671941e-01
1.6881835461e-01 3.6857420206e-01 -1.3031756878e-01
1.7781250179e-01 3.6431640387e-01 -1.3031925261e-01
1.8449218571e-01 3.6097654700e-01 -1.3032047451e-01
1.8670898676e-01 3.5984373093e-01 -1.3032089174e-01
1.8891601264e-01 3.5869139433e-01 -1.3032129407e-01
1.9548827410e-01 3.5515624285e-01 -1.3032248616e-01
2.0842772722e-01 3.4773436189e-01 -1.3032479584e-01
2.1900390089e-01 3.4117186069e-01 -1.3032662868e-01
2.2109374404e-01 3.3982419968e-01 -1.3032698631e-01
2.2317382693e-01 3.3847656846e-01 -1.3032735884e-01
2.2524413466e-01 3.3708983660e-01 -1.3032770157e-01
2.2936522961e-01 3.3429688215e-01 -1.3032840192e-01
2.3141601682e-01 3.3289062977e-01 -1.3032874465e-01
2.3547850549e-01 3.3003905416e-01 -1.3032943010e-01
2.3749999702e-01 3.2857421041e-01 -1.3032975793e-01
2.3951171339e-01 3.2710936666e-01 -1.3033008575e-01
2.4151366949e-01 3.2564452291e-01 -1.3033041358e-01
2.4351562560e-01 3.2416015863e-01 -1.3033075631e-01
2.4944335222e-01 3.1962889433e-01 -1.3033170998e-01
2.5139647722e-01 3.1808593869e-01 -1.3033202291e-01
2.5721678138e-01 3.1339842081e-01 -1.3033293188e-01
2.6104491949e-01 3.1023436785e-01 -1.3033352792e-01
2.6482421160e-01 3.0701172352e-01 -1.3033412397e-01
2.6670897007e-01 3.0537107587e-01 -1.3033440709e-01
2.7043944597e-01 3.0207031965e-01 -1.3033495843e-01
2.7228516340e-01 3.0041015148e-01 -1.3033524156e-01
2.7594727278e-01 2.9705077410e-01 -1.3033579290e-01
2.7777343988e-01 2.9535156488e-01 -1.3033606112e-01
2.7958008647e-01 2.9365232587e-01 -1.3033631444e-01
2.8316405416e-01 2.9019531608e-01 -1.3033685088e-01
2.8494140506e-01 2.8845703602e-01 -1.3033708930e-01
2.8845703602e-01 2.8494140506e-01 -1.3033758104e-01
2.9020506144e-01 2.8316405416e-01 -1.3033783436e-01
2.9706054926e-01 2.7595701814e-01 -1.3033877313e-01
2.9874998331e-01 2.7412107587e-01 -1.3033899665e-01
3.0042967200e-01 2.7228516340e-01 -1.3033923507e-01
3.0374997854e-01 2.6857420802e-01 -1.3033965230e-01
3.0702146888e-01 2.6484373212e-01 -1.3034008443e-01
3.1025388837e-01 2.6105469465e-01 -1.3034048676e-01
3.1343749166e-01 2.5722655654e-01 -1.3034087420e-01
3.1656250358e-01 2.5335937738e-01 -1.3034126163e-01
3.1811523438e-01 2.5140625238e-01 -1.3034144044e-01
3.1965819001e-01 2.4945311248e-01 -1.3034163415e-01
3.2269531488e-01 2.4550780654e-01 -1.3034197688e-01
3.2418945432e-01 2.4353514612e-01 -1.3034214079e-01
3.2568359375e-01 2.4154296517e-01 -1.3034231961e-01
3.2715818286e-01 2.3953124881e-01 -1.3034248352e-01
3.2862302661e-01 2.3751953244e-01 -1.3034263253e-01
3.3151367307e-01 2.3347656429e-01 -1.3034294546e-01
3.3293944597e-01 2.3142577708e-01 -1.3034309447e-01
3.3435547352e-01 2.2939452529e-01 -1.3034324348e-01
3.3575195074e-01 2.2732421756e-01 -1.3034337759e-01
3.3713865280e-01 2.2527343035e-01 -1.3034352660e-01
3.3851560950e-01 2.2320312262e-01 -1.3034366071e-01
3.4123045206e-01 2.1902343631e-01 -1.3034391403e-01
3.4256833792e-01 2.1693359315e-01 -1.3034403324e-01
3.4389647841e-01 2.1482421458e-01 -1.3034415245e-01
3.4779295325e-01 2.0845702291e-01 -1.3034448028e-01
3.4906250238e-01 2.0630858839e-01 -1.3034458458e-01
3.5401365161e-01 1.9769531488e-01 -1.3034497201e-01
3.5522460938e-01 1.9550780952e-01 -1.3034506142e-01
3.5759764910e-01 1.9113281369e-01 -1.3034522533e-01
3.5991209745e-01 1.8673828244e-01 -1.3034537435e-01
3.6105468869e-01 1.8453124166e-01 -1.3034543395e-01
3.6329099536e-01 1.8007811904e-01 -1.3034556806e-01
3.6439451575e-01 1.7785155773e-01 -1.3034561276e-01
3.6654296517e-01 1.7335936427e-01 -1.3034571707e-01
3.6864256859e-01 1.6884765029e-01 -1.3034580648e-01
3.7069335580e-01 1.6431640089e-01 -1.3034588099e-01
3.7168943882e-01 1.6203124821e-01 -1.3034591079e-01
3.7365233898e-01 1.5746092796e-01 -1.3034595549e-01
3.7460938096e-01 1.5517577529e-01 -1.3034598529e-01
3.7831053138e-01 1.4593750238e-01 -1.3034603000e-01
3.7919920683e-01 1.4361327887e-01 -1.3034603000e-01
3.8006836176e-01 1.4126953483e-01 -1.3034603000e-01
3.8092771173e-01 1.3894531131e-01 -1.3034601510e-01
3.8177734613e-01 1.3660155237e-01 -1.3034601510e-01
3.8342773914e-01 1.3191406429e-01 -1.3034598529e-01
3.8422849774e-01 1.2955078483e-01 -1.3034595549e-01
3.8500976562e-01 1.2718749046e-01 -1.3034592569e-01
3.8578122854e-01 1.2482421845e-01 -1.3034591079e-01
3.8654294610e-01 1.2246093154e-01 -1.3034586608e-01
3.8801756501e-01 1.1769530922e-01 -1.3034579158e-01
3.8873046637e-01 1.1531249434e-01 -1.3034574687e-01
3.8943359256e-01 1.1292968690e-01 -1.3034570217e-01
3.9011716843e-01 1.1054687202e-01 -1.3034565747e-01
3.9079099894e-01 1.0814452916e-01 -1.3034559786e-01
3.9144530892e-01 1.0574218631e-01 -1.3034553826e-01
3.9208984375e-01 1.0333984345e-01 -1.3034547865e-01
3.9392578602e-01 9.6113279462e-02 -1.3034527004e-01
3.9506834745e-01 9.1269530356e-02 -1.3034510612e-01
3.9816406369e-01 7.6660156250e-02 -1.3034455478e-01
3.9992186427e-01 6.6874995828e-02 -1.3034410775e-01
4.0032225847e-01 6.4414061606e-02 -1.3034397364e-01
4.0108397603e-01 5.9492185712e-02 -1.3034373522e-01
4.0210935473e-01 5.2109375596e-02 -1.3034331799e-01
4.0242186189e-01 4.9628905952e-02 -1.3034318388e-01
4.0271484852e-01 4.7167968005e-02 -1.3034303486e-01
4.0299803019e-01 4.4687498361e-02 -1.3034288585e-01
4.0351560712e-01 3.9746094495e-02 -1.3034257293e-01
4.0375000238e-01 3.7265624851e-02 -1.3034240901e-01
4.0417969227e-01 3.2304685563e-02 -1.3034208119e-01
4.0470701456e-01 2.4863280356e-02 -1.3034155965e-01
4.0484374762e-01 2.2382812575e-02 -1.3034136593e-01
4.0498045087e-01 1.9902342930e-02 -1.3034118712e-01
4.0518555045e-01 1.4921874739e-02 -1.3034079969e-01
4.0534177423e-01 9.9414056167e-03 -1.3034039736e-01
4.0545898676e-01 2.4804687127e-03 -1.3033978641e-01
4.0545898676e-01 -0.0000000000e+00 -1.3033957779e-01
4.0544921160e-01 -2.4804687127e-03 -1.3033935428e-01
4.0542969108e-01 -4.9804686569e-03 -1.3033913076e-01
4.0533202887e-01 -9.9414056167e-03 -1.3033866882e-01
4.0526366234e-01 -1.2441406026e-02 -1.3033844531e-01
4.0507811308e-01 -1.7402343452e-02 -1.3033798337e-01
4.0468749404e-01 -2.4863280356e-02 -1.3033723831e-01
4.0453124046e-01 -2.7343750000e-02 -1.3033698499e-01
4.0395507216e-01 -3.4785155207e-02 -1.3033621013e-01
4.0373045206e-01 -3.7265624851e-02 -1.3033594191e-01
4.0324217081e-01 -4.2207028717e-02 -1.3033540547e-01
4.0240234137e-01 -4.9628905952e-02 -1.3033457100e-01
4.0105468035e-01 -5.9492185712e-02 -1.3033340871e-01
4.0029296279e-01 -6.4414061606e-02 -1.3033281267e-01
3.9989256859e-01 -6.6855467856e-02 -1.3033249974e-01
3.9947265387e-01 -6.9316402078e-02 -1.3033220172e-01
3.9903318882e-01 -7.1757808328e-02 -1.3033188879e-01
3.9764648676e-01 -7.9101562500e-02 -1.3033093512e-01
3.9714843035e-01 -8.1542968750e-02 -1.3033060730e-01
3.9664062858e-01 -8.3964839578e-02 -1.3033027947e-01
3.9612305164e-01 -8.6406245828e-02 -1.3032995164e-01
3.9387694001e-01 -9.6093751490e-02 -1.3032861054e-01
3.9328125119e-01 -9.8515622318e-02 -1.3032826781e-01
3.9266601205e-01 -1.0091796517e-01 -1.3032791018e-01
3.9204099774e-01 -1.0332030803e-01 -1.3032755256e-01
3.9139646292e-01 -1.0574218631e-01 -1.3032720983e-01
3.8868162036e-01 -1.1531249434e-01 -1.3032574952e-01
3.8795897365e-01 -1.1769530922e-01 -1.3032537699e-01
3.8722655177e-01 -1.2005858868e-01 -1.3032500446e-01
3.8572263718e-01 -1.2480468303e-01 -1.3032425940e-01
3.8495117426e-01 -1.2716796994e-01 -1.3032387197e-01
3.7913084030e-01 -1.4357422292e-01 -1.3032113016e-01
3.7641599774e-01 -1.5052734315e-01 -1.3031990826e-01
3.7548828125e-01 -1.5283203125e-01 -1.3031949103e-01
3.7358397245e-01 -1.5744140744e-01 -1.3031865656e-01
3.7061521411e-01 -1.6427734494e-01 -1.3031738997e-01
3.6857420206e-01 -1.6880859435e-01 -1.3031654060e-01
3.6752930284e-01 -1.7107421160e-01 -1.3031610847e-01
3.6540037394e-01 -1.7556640506e-01 -1.3031522930e-01
3.6321288347e-01 -1.8003906310e-01 -1.3031433523e-01
3.6209958792e-01 -1.8226562440e-01 -1.3031388819e-01
3.6097654700e-01 -1.8449218571e-01 -1.3031345606e-01
3.5983398557e-01 -1.8669921160e-01 -1.3031299412e-01
3.5868161917e-01 -1.8890625238e-01 -1.3031253219e-01
3.5750976205e-01 -1.9109374285e-01 -1.3031207025e-01
3.5393553972e-01 -1.9763670862e-01 -1.3031069934e-01
3.5147461295e-01 -2.0197264850e-01 -1.3030976057e-01
3.4640625119e-01 -2.1052734554e-01 -1.3030786812e-01
3.4510740638e-01 -2.1265624464e-01 -1.3030739129e-01
3.4113281965e-01 -2.1896484494e-01 -1.3030593097e-01
3.3841794729e-01 -2.2312499583e-01 -1.3030494750e-01
3.3704102039e-01 -2.2519530356e-01 -1.3030445576e-01
3.3565428853e-01 -2.2726562619e-01 -1.3030396402e-01
3.3283203840e-01 -2.3136718571e-01 -1.3030296564e-01
3.3140623569e-01 -2.3339843750e-01 -1.3030245900e-01
3.2705077529e-01 -2.3945312202e-01 -1.3030095398e-01
3.1800779700e-01 -2.5132811069e-01 -1.3029785454e-01
3.1333008409e-01 -2.5712889433e-01 -1.3029628992e-01
3.1173828244e-01 -2.5906249881e-01 -1.3029575348e-01
3.1014648080e-01 -2.6095703244e-01 -1.3029523194e-01
3.0364257097e-01 -2.6849609613e-01 -1.3029310107e-01
2.9864257574e-01 -2.7402344346e-01 -1.3029147685e-01
2.9525390267e-01 -2.7767577767e-01 -1.3029038906e-01
2.9354491830e-01 -2.7947264910e-01 -1.3028985262e-01
2.9182615876e-01 -2.8126952052e-01 -1.3028930128e-01
2.8658202291e-01 -2.8660154343e-01 -1.3028764725e-01
2.8482422233e-01 -2.8833982348e-01 -1.3028709590e-01
2.7583983541e-01 -2.9693359137e-01 -1.3028429449e-01
2.7400389314e-01 -2.9863280058e-01 -1.3028372824e-01
2.7032226324e-01 -3.0195310712e-01 -1.3028261065e-01
2.6659178734e-01 -3.0525389314e-01 -1.3028147817e-01
2.6282227039e-01 -3.0849608779e-01 -1.3028033078e-01
2.6092773676e-01 -3.1009763479e-01 -1.3027976453e-01
2.5901365280e-01 -3.1169921160e-01 -1.3027918339e-01
2.5709959865e-01 -3.1328123808e-01 -1.3027861714e-01
2.4932616949e-01 -3.1949219108e-01 -1.3027630746e-01
2.4140624702e-01 -3.2550781965e-01 -1.3027398288e-01
2.3537108302e-01 -3.2990235090e-01 -1.3027220964e-01
2.3333983123e-01 -3.3132812381e-01 -1.3027162850e-01
2.2925780714e-01 -3.3416014910e-01 -1.3027046621e-01
2.2719725966e-01 -3.3556640148e-01 -1.3026985526e-01
2.2306640446e-01 -3.3832031488e-01 -1.3026867807e-01
2.2098632157e-01 -3.3968749642e-01 -1.3026809692e-01
2.1679687500e-01 -3.4236326814e-01 -1.3026690483e-01
2.1257811785e-01 -3.4499999881e-01 -1.3026571274e-01
2.0404297113e-01 -3.5009765625e-01 -1.3026332855e-01
2.0188476145e-01 -3.5134765506e-01 -1.3026271760e-01
1.9972655177e-01 -3.5257810354e-01 -1.3026212156e-01
1.9755859673e-01 -3.5378906131e-01 -1.3026152551e-01
1.9539062679e-01 -3.5499998927e-01 -1.3026092947e-01
1.9320312142e-01 -3.5619139671e-01 -1.3026033342e-01
1.9101561606e-01 -3.5736328363e-01 -1.3025973737e-01
1.8881835043e-01 -3.5853514075e-01 -1.3025912642e-01
1.8440429866e-01 -3.6082029343e-01 -1.3025791943e-01
1.7772459984e-01 -3.6414062977e-01 -1.3025611639e-01
1.7548827827e-01 -3.6523437500e-01 -1.3025550544e-01
1.7324218154e-01 -3.6630859971e-01 -1.3025490940e-01
1.7098632455e-01 -3.6736327410e-01 -1.3025429845e-01
1.6646483541e-01 -3.6941406131e-01 -1.3025307655e-01
1.6192382574e-01 -3.7142577767e-01 -1.3025188446e-01
1.5735350549e-01 -3.7339842319e-01 -1.3025066257e-01
1.5504881740e-01 -3.7433591485e-01 -1.3025006652e-01
1.5044921637e-01 -3.7621092796e-01 -1.3024884462e-01
1.4582030475e-01 -3.7802734971e-01 -1.3024763763e-01
1.4349609613e-01 -3.7892577052e-01 -1.3024702668e-01
1.4116211236e-01 -3.7978515029e-01 -1.3024641573e-01
