VERSION 0.7
FIELDS x y z
SIZE 4 4 4
TYPE F F F
COUNT 1 1 1
WIDTH 900
HEIGHT 1
VIEWPOINT 0.0 0.0 0.0 1.0 0.0 0.0 0.0
POINTS 900
DATA ascii
5.3114259243e-01 -5.5605467409e-02 -1.3036340475e-01
5.3079098463e-01 -5.8867186308e-02 -1.3036303222e-01
5.3041988611e-01 -6.2109373510e-02 -1.3036267459e-01
5.3002929688e-01 -6.5371088684e-02 -1.3036230206e-01
5.2960938215e-01 -6.8613283336e-02 -1.3036192954e-01
5.2873045206e-01 -7.5117185712e-02 -1.3036115468e-01
5.2825194597e-01 -7.8359372914e-02 -1.3036076725e-01
5.2776366472e-01 -8.1601560116e-02 -1.3036037982e-01
5.2499997616e-01 -9.7753904760e-02 -1.3035835326e-01
5.2439451218e-01 -1.0095702857e-01 -1.3035793602e-01
5.2375978231e-01 -1.0417968780e-01 -1.3035750389e-01
5.2311521769e-01 -1.0738281161e-01 -1.3035708666e-01
5.2244138718e-01 -1.1060546339e-01 -1.3035665452e-01
5.2104490995e-01 -1.1699218303e-01 -1.3035577536e-01
5.1956051588e-01 -1.2337890267e-01 -1.3035488129e-01
5.1719725132e-01 -1.3292968273e-01 -1.3035352528e-01
5.1636719704e-01 -1.3609375060e-01 -1.3035306334e-01
5.1552730799e-01 -1.3925780356e-01 -1.3035258651e-01
5.1465821266e-01 -1.4242187142e-01 -1.3035212457e-01
5.1376950741e-01 -1.4558593929e-01 -1.3035164773e-01
5.1194334030e-01 -1.5187498927e-01 -1.3035067916e-01
5.1099610329e-01 -1.5500000119e-01 -1.3035020232e-01
5.1003903151e-01 -1.5814453363e-01 -1.3034969568e-01
5.0905269384e-01 -1.6126953065e-01 -1.3034921885e-01
5.0805664062e-01 -1.6439452767e-01 -1.3034871221e-01
5.0599610806e-01 -1.7060546577e-01 -1.3034771383e-01
5.0165039301e-01 -1.8296875060e-01 -1.3034564257e-01
4.9935546517e-01 -1.8910156190e-01 -1.3034458458e-01
4.9700194597e-01 -1.9521483779e-01 -1.3034352660e-01
4.9579101801e-01 -1.9826170802e-01 -1.3034297526e-01
4.8946288228e-01 -2.1337890625e-01 -1.3034023345e-01
4.8814451694e-01 -2.1636718512e-01 -1.3033966720e-01
4.8680663109e-01 -2.1937499940e-01 -1.3033910096e-01
4.8407226801e-01 -2.2531250119e-01 -1.3033796847e-01
4.8126950860e-01 -2.3124998808e-01 -1.3033682108e-01
4.7692382336e-01 -2.4005858600e-01 -1.3033506274e-01
4.7543942928e-01 -2.4298827350e-01 -1.3033446670e-01
4.7242185473e-01 -2.4878905714e-01 -1.3033327460e-01
4.6932616830e-01 -2.5457030535e-01 -1.3033206761e-01
4.6775388718e-01 -2.5744140148e-01 -1.3033147156e-01
4.6616208553e-01 -2.6031249762e-01 -1.3033084571e-01
4.6455076337e-01 -2.6316404343e-01 -1.3033023477e-01
4.5281249285e-01 -2.8285154700e-01 -1.3032585382e-01
4.5105469227e-01 -2.8562498093e-01 -1.3032521307e-01
4.4928708673e-01 -2.8839844465e-01 -1.3032457232e-01
4.4750976562e-01 -2.9113280773e-01 -1.3032393157e-01
4.4571289420e-01 -2.9388672113e-01 -1.3032327592e-01
4.4389647245e-01 -2.9660156369e-01 -1.3032263517e-01
4.4207030535e-01 -2.9931640625e-01 -1.3032197952e-01
4.4022458792e-01 -3.0203124881e-01 -1.3032132387e-01
4.3647459149e-01 -3.0740234256e-01 -1.3031999767e-01
4.3458005786e-01 -3.1007811427e-01 -1.3031934202e-01
4.3266600370e-01 -3.1273436546e-01 -1.3031867146e-01
4.3074217439e-01 -3.1539061666e-01 -1.3031801581e-01
4.1882812977e-01 -3.3101561666e-01 -1.3031393290e-01
4.1056638956e-01 -3.4119141102e-01 -1.3031117618e-01
4.0420898795e-01 -3.4867185354e-01 -1.3030907512e-01
4.0206053853e-01 -3.5115233064e-01 -1.3030837476e-01
3.9990234375e-01 -3.5361328721e-01 -1.3030765951e-01
3.9552733302e-01 -3.5847654939e-01 -1.3030624390e-01
3.8884764910e-01 -3.6570310593e-01 -1.3030409813e-01
3.8660156727e-01 -3.6808592081e-01 -1.3030338287e-01
3.8433593512e-01 -3.7044921517e-01 -1.3030265272e-01
3.7975585461e-01 -3.7511718273e-01 -1.3030120730e-01
3.7278318405e-01 -3.8205078244e-01 -1.3029901683e-01
3.7041991949e-01 -3.8431638479e-01 -1.3029828668e-01
3.6805662513e-01 -3.8658201694e-01 -1.3029755652e-01
3.6086913943e-01 -3.9328125119e-01 -1.3029533625e-01
3.5601562262e-01 -3.9767578244e-01 -1.3029384613e-01
3.4863281250e-01 -4.0416014194e-01 -1.3029159606e-01
3.4614256024e-01 -4.0628904104e-01 -1.3029085100e-01
3.4364256263e-01 -4.0839841962e-01 -1.3029009104e-01
3.4112304449e-01 -4.1050779819e-01 -1.3028934598e-01
3.3860349655e-01 -4.1257810593e-01 -1.3028858602e-01
3.3093750477e-01 -4.1874998808e-01 -1.3028630614e-01
3.2835936546e-01 -4.2076170444e-01 -1.3028553128e-01
3.2577148080e-01 -4.2277342081e-01 -1.3028477132e-01
3.1529295444e-01 -4.3062499166e-01 -1.3028170168e-01
3.1264647841e-01 -4.3253904581e-01 -1.3028094172e-01
3.0998045206e-01 -4.3445312977e-01 -1.3028016686e-01
3.0730468035e-01 -4.3634763360e-01 -1.3027939200e-01
3.0461913347e-01 -4.3822264671e-01 -1.3027861714e-01
2.9650390148e-01 -4.4374999404e-01 -1.3027629256e-01
2.8551757336e-01 -4.5087888837e-01 -1.3027316332e-01
2.7715820074e-01 -4.5605468750e-01 -1.3027080894e-01
2.7435547113e-01 -4.5773437619e-01 -1.3027003407e-01
2.5731444359e-01 -4.6751952171e-01 -1.3026529551e-01
2.4866209924e-01 -4.7216796875e-01 -1.3026291132e-01
2.4575194716e-01 -4.7367185354e-01 -1.3026212156e-01
2.4284179509e-01 -4.7517576814e-01 -1.3026133180e-01
2.3992186785e-01 -4.7664061189e-01 -1.3026054204e-01
2.3405273259e-01 -4.7955077887e-01 -1.3025894761e-01
2.3110350966e-01 -4.8097655177e-01 -1.3025815785e-01
2.2518554330e-01 -4.8376950622e-01 -1.3025656343e-01
2.2220702469e-01 -4.8513671756e-01 -1.3025575876e-01
2.1623046696e-01 -4.8783200979e-01 -1.3025416434e-01
2.1323241293e-01 -4.8914059997e-01 -1.3025337458e-01
2.1023437381e-01 -4.9042966962e-01 -1.3025258482e-01
1.9507811964e-01 -4.9664062262e-01 -1.3024857640e-01
1.9203124940e-01 -4.9783203006e-01 -1.3024778664e-01
1.8896484375e-01 -4.9898436666e-01 -1.3024698198e-01
1.8590819836e-01 -5.0013673306e-01 -1.3024619222e-01
1.7356444895e-01 -5.0453126431e-01 -1.3024300337e-01
1.7046874762e-01 -5.0558590889e-01 -1.3024219871e-01
1.6736327112e-01 -5.0662106276e-01 -1.3024139404e-01
1.6113281250e-01 -5.0863277912e-01 -1.3023981452e-01
1.5487304330e-01 -5.1056641340e-01 -1.3023822010e-01
1.4544922113e-01 -5.1332032681e-01 -1.3023583591e-01
1.3597655296e-01 -5.1589840651e-01 -1.3023345172e-01
1.3280272484e-01 -5.1671874523e-01 -1.3023266196e-01
1.2645506859e-01 -5.1830077171e-01 -1.3023106754e-01
1.1369140446e-01 -5.2125000954e-01 -1.3022790849e-01
1.1048828065e-01 -5.2193355560e-01 -1.3022711873e-01
1.0728515685e-01 -5.2259767056e-01 -1.3022632897e-01
1.0408202559e-01 -5.2324217558e-01 -1.3022553921e-01
9.7646482289e-02 -5.2447265387e-01 -1.3022397459e-01
8.7978512049e-02 -5.2617186308e-01 -1.3022160530e-01
8.1513673067e-02 -5.2720701694e-01 -1.3022005558e-01
6.8544916809e-02 -5.2902340889e-01 -1.3021694124e-01
6.5302729607e-02 -5.2943360806e-01 -1.3021616638e-01
5.8798827231e-02 -5.3019529581e-01 -1.3021461666e-01
5.5537108332e-02 -5.3054684401e-01 -1.3021384180e-01
5.2285153419e-02 -5.3085935116e-01 -1.3021308184e-01
4.9023438245e-02 -5.3117185831e-01 -1.3021230698e-01
3.9238281548e-02 -5.3197264671e-01 -1.3021001220e-01
3.5976562649e-02 -5.3220701218e-01 -1.3020923734e-01
2.6171874255e-02 -5.3277343512e-01 -1.3020695746e-01
1.6357421875e-02 -5.3314453363e-01 -1.3020467758e-01
1.3085937127e-02 -5.3324216604e-01 -1.3020393252e-01
9.8144533113e-03 -5.3330075741e-01 -1.3020318747e-01
6.5429685637e-03 -5.3335934877e-01 -1.3020242751e-01
0.0000000000e+00 -5.3337889910e-01 -1.3020093739e-01
-3.2714842819e-03 -5.3337889910e-01 -1.3020019233e-01
-6.5429685637e-03 -5.3333985806e-01 -1.3019944727e-01
-2.2900389507e-02 -5.3287106752e-01 -1.3019576669e-01
-2.6171874255e-02 -5.3271484375e-01 -1.3019503653e-01
-2.9433593154e-02 -5.3253906965e-01 -1.3019430637e-01
-3.2705076039e-02 -5.3236329556e-01 -1.3019357622e-01
-3.5966794938e-02 -5.3214842081e-01 -1.3019284606e-01
-4.9013670534e-02 -5.3109371662e-01 -1.3018997014e-01
-5.5527344346e-02 -5.3044921160e-01 -1.3018853962e-01
-6.5283201635e-02 -5.2931636572e-01 -1.3018640876e-01
-6.8525388837e-02 -5.2890622616e-01 -1.3018570840e-01
-7.1777343750e-02 -5.2847653627e-01 -1.3018499315e-01
-7.8251950443e-02 -5.2753907442e-01 -1.3018360734e-01
-8.4716796875e-02 -5.2654296160e-01 -1.3018222153e-01
-9.1171875596e-02 -5.2544921637e-01 -1.3018083572e-01
-9.4394527376e-02 -5.2488279343e-01 -1.3018015027e-01
-1.0404296964e-01 -5.2304685116e-01 -1.3017812371e-01
-1.1044921726e-01 -5.2171874046e-01 -1.3017678261e-01
-1.1684569716e-01 -5.2033203840e-01 -1.3017544150e-01
-1.2002929300e-01 -5.1958984137e-01 -1.3017477095e-01
-1.2321288884e-01 -5.1884764433e-01 -1.3017411530e-01
-1.3907226920e-01 -5.1480466127e-01 -1.3017085195e-01
-1.4222656190e-01 -5.1394528151e-01 -1.3017021120e-01
-1.4537109435e-01 -5.1306641102e-01 -1.3016955554e-01
-1.4851562679e-01 -5.1216793060e-01 -1.3016891479e-01
-1.5166015923e-01 -5.1123046875e-01 -1.3016828895e-01
-1.5791991353e-01 -5.0933593512e-01 -1.3016702235e-01
-1.7346678674e-01 -5.0423824787e-01 -1.3016392291e-01
-1.7963866889e-01 -5.0207030773e-01 -1.3016270101e-01
-1.8271483481e-01 -5.0095701218e-01 -1.3016210496e-01
-1.9495116174e-01 -4.9630859494e-01 -1.3015972078e-01
-1.9798827171e-01 -4.9509763718e-01 -1.3015912473e-01
-2.0102538168e-01 -4.9386718869e-01 -1.3015854359e-01
-2.1007812023e-01 -4.9007812142e-01 -1.3015681505e-01
-2.1307617426e-01 -4.8878905177e-01 -1.3015623391e-01
-2.1905273199e-01 -4.8613280058e-01 -1.3015510142e-01
-2.2204101086e-01 -4.8476561904e-01 -1.3015453517e-01
-2.2500975430e-01 -4.8339843750e-01 -1.3015398383e-01
-2.3385742307e-01 -4.7916015983e-01 -1.3015232980e-01
-2.4844725430e-01 -4.7175779939e-01 -1.3014964759e-01
-2.5133788586e-01 -4.7023436427e-01 -1.3014912605e-01
-2.5420898199e-01 -4.6867185831e-01 -1.3014860451e-01
-2.5708007812e-01 -4.6710935235e-01 -1.3014808297e-01
-2.6279297471e-01 -4.6390622854e-01 -1.3014706969e-01
-2.6846680045e-01 -4.6064451337e-01 -1.3014605641e-01
-2.7128905058e-01 -4.5898437500e-01 -1.3014554977e-01
-2.7409178019e-01 -4.5730468631e-01 -1.3014505804e-01
-2.8246092796e-01 -4.5218747854e-01 -1.3014359772e-01
-2.8523436189e-01 -4.5044919848e-01 -1.3014312088e-01
-2.8798827529e-01 -4.4869139791e-01 -1.3014264405e-01
-2.9073241353e-01 -4.4691404700e-01 -1.3014216721e-01
-2.9619139433e-01 -4.4330078363e-01 -1.3014124334e-01
-3.0161133409e-01 -4.3962889910e-01 -1.3014031947e-01
-3.0430662632e-01 -4.3777343631e-01 -1.3013985753e-01
-3.0964842439e-01 -4.3400388956e-01 -1.3013897836e-01
-3.1495115161e-01 -4.3015623093e-01 -1.3013809919e-01
-3.1757810712e-01 -4.2822265625e-01 -1.3013766706e-01
-3.2281249762e-01 -4.2429685593e-01 -1.3013681769e-01
-3.2541015744e-01 -4.2230468988e-01 -1.3013638556e-01
-3.2798826694e-01 -4.2029297352e-01 -1.3013598323e-01
-3.3055663109e-01 -4.1828122735e-01 -1.3013556600e-01
-3.3566406369e-01 -4.1417968273e-01 -1.3013476133e-01
-3.4072265029e-01 -4.1001951694e-01 -1.3013397157e-01
-3.4572264552e-01 -4.0582031012e-01 -1.3013318181e-01
-3.5067382455e-01 -4.0154296160e-01 -1.3013243675e-01
-3.5557615757e-01 -3.9720702171e-01 -1.3013169169e-01
-3.6041989923e-01 -3.9281249046e-01 -1.3013096154e-01
-3.6282226443e-01 -3.9058592916e-01 -1.3013061881e-01
-3.6995115876e-01 -3.8384765387e-01 -1.3012957573e-01
-3.7229490280e-01 -3.8156250119e-01 -1.3012923300e-01
-3.7462890148e-01 -3.7925779819e-01 -1.3012890518e-01
-3.7695312500e-01 -3.7693357468e-01 -1.3012857735e-01
-3.7925779819e-01 -3.7462890148e-01 -1.3012824953e-01
-3.8381835818e-01 -3.6994138360e-01 -1.3012762368e-01
-3.8608399034e-01 -3.6757811904e-01 -1.3012729585e-01
-3.8833007216e-01 -3.6519530416e-01 -1.3012699783e-01
-3.9278319478e-01 -3.6041015387e-01 -1.3012640178e-01
-3.9934569597e-01 -3.5310545564e-01 -1.3012553751e-01
-4.0150389075e-01 -3.5064452887e-01 -1.3012526929e-01
-4.0365234017e-01 -3.4818357229e-01 -1.3012498617e-01
-4.0577146411e-01 -3.4570312500e-01 -1.3012471795e-01
-4.0789061785e-01 -3.4320312738e-01 -1.3012444973e-01
-4.0999022126e-01 -3.4068357944e-01 -1.3012418151e-01
-4.1207030416e-01 -3.3816406131e-01 -1.3012394309e-01
-4.1413083673e-01 -3.3562499285e-01 -1.3012367487e-01
-4.1618162394e-01 -3.3308592439e-01 -1.3012343645e-01
-4.2024412751e-01 -3.2794922590e-01 -1.3012295961e-01
-4.3392577767e-01 -3.0960935354e-01 -1.3012142479e-01
-4.3582031131e-01 -3.0693358183e-01 -1.3012123108e-01
-4.4139647484e-01 -2.9886716604e-01 -1.3012064993e-01
-4.4502928853e-01 -2.9341796041e-01 -1.3012029231e-01
-4.4859373569e-01 -2.8792968392e-01 -1.3011996448e-01
-4.5550781488e-01 -2.7683591843e-01 -1.3011933863e-01
-4.5720702410e-01 -2.7404296398e-01 -1.3011918962e-01
-4.6052733064e-01 -2.6839843392e-01 -1.3011893630e-01
-4.6216794848e-01 -2.6556640863e-01 -1.3011880219e-01
-4.6539062262e-01 -2.5988280773e-01 -1.3011856377e-01
-4.7009763122e-01 -2.5126951933e-01 -1.3011823595e-01
-4.7463867068e-01 -2.4257811904e-01 -1.3011795282e-01
-4.7902342677e-01 -2.3378905654e-01 -1.3011771441e-01
-4.8185545206e-01 -2.2791014612e-01 -1.3011758029e-01
-4.8324218392e-01 -2.2494140267e-01 -1.3011752069e-01
-4.8461914062e-01 -2.2197264433e-01 -1.3011746109e-01
-4.9120116234e-01 -2.0699217916e-01 -1.3011726737e-01
-4.9370115995e-01 -2.0095703006e-01 -1.3011720777e-01
-4.9492186308e-01 -1.9792968035e-01 -1.3011719286e-01
-5.0076168776e-01 -1.8265624344e-01 -1.3011719286e-01
-5.0296872854e-01 -1.7648437619e-01 -1.3011722267e-01
-5.0404298306e-01 -1.7339843512e-01 -1.3011723757e-01
-5.0509762764e-01 -1.7031249404e-01 -1.3011726737e-01
-5.0613278151e-01 -1.6720703244e-01 -1.3011729717e-01
-5.1007813215e-01 -1.5472656488e-01 -1.3011749089e-01
-5.1102536917e-01 -1.5160155296e-01 -1.3011753559e-01
-5.1284176111e-01 -1.4531250298e-01 -1.3011766970e-01
-5.1542967558e-01 -1.3585937023e-01 -1.3011789322e-01
-5.1706051826e-01 -1.2951171398e-01 -1.3011808693e-01
-5.1861327887e-01 -1.2316405773e-01 -1.3011826575e-01
-5.1936525106e-01 -1.1998046935e-01 -1.3011837006e-01
-5.2008789778e-01 -1.1679687351e-01 -1.3011848927e-01
-5.2080076933e-01 -1.1359374970e-01 -1.3011860847e-01
-5.2214843035e-01 -1.0718749464e-01 -1.3011884689e-01
-5.2280271053e-01 -1.0398437083e-01 -1.3011898100e-01
-5.2342772484e-01 -1.0078124702e-01 -1.3011911511e-01
-5.2404296398e-01 -9.7558595240e-02 -1.3011924922e-01
-5.2462887764e-01 -9.4355463982e-02 -1.3011939824e-01
-5.2627927065e-01 -8.4687501192e-02 -1.3011986017e-01
-5.2727538347e-01 -7.8222654760e-02 -1.3012020290e-01
-5.3080075979e-01 -4.8984374851e-02 -1.3012193143e-01
-5.3109371662e-01 -4.5742187649e-02 -1.3012214005e-01
-5.3135740757e-01 -4.2480468750e-02 -1.3012236357e-01
-5.3161132336e-01 -3.9218749851e-02 -1.3012258708e-01
-5.3206056356e-01 -3.2695312053e-02 -1.3012304902e-01
-5.3224605322e-01 -2.9414061457e-02 -1.3012328744e-01
-5.3242188692e-01 -2.6152342558e-02 -1.3012354076e-01
-5.3256833553e-01 -2.2890623659e-02 -1.3012377918e-01
-5.3281247616e-01 -1.6347656026e-02 -1.3012430072e-01
-5.3291016817e-01 -1.3085937127e-02 -1.3012455404e-01
-5.3297847509e-01 -9.8046874627e-03 -1.3012482226e-01
-5.3302735090e-01 -6.5429685637e-03 -1.3012510538e-01
-4.9451169372e-01 -0.0000000000e+00 -1.3013444841e-01
-4.9447265267e-01 6.0742185451e-03 -1.3013498485e-01
-4.9436521530e-01 1.2128906325e-02 -1.3013552129e-01
-4.9417966604e-01 1.8203124404e-02 -1.3013610244e-01
-4.9359375238e-01 3.0332030728e-02 -1.3013727963e-01
-4.9294921756e-01 3.9414063096e-02 -1.3013821840e-01
-4.9243164062e-01 4.5449215919e-02 -1.3013885915e-01
-4.9043944478e-01 6.3554689288e-02 -1.3014087081e-01
-4.8873046041e-01 7.5566403568e-02 -1.3014230132e-01
-4.8826169968e-01 7.8554682434e-02 -1.3014267385e-01
-4.8777341843e-01 8.1562496722e-02 -1.3014304638e-01
-4.8726561666e-01 8.4550783038e-02 -1.3014341891e-01
-4.8619139194e-01 9.0527340770e-02 -1.3014417887e-01
-4.8563474417e-01 9.3496091664e-02 -1.3014456630e-01
-4.8504883051e-01 9.6484370530e-02 -1.3014495373e-01
-4.8319333792e-01 1.0539062321e-01 -1.3014616072e-01
-4.8186522722e-01 1.1132812500e-01 -1.3014696538e-01
-4.8046875000e-01 1.1722656339e-01 -1.3014779985e-01
-4.7974607348e-01 1.2017577887e-01 -1.3014821708e-01
-4.7900390625e-01 1.2310546637e-01 -1.3014864922e-01
-4.7823241353e-01 1.2605468929e-01 -1.3014908135e-01
-4.7745117545e-01 1.2898437679e-01 -1.3014949858e-01
-4.7666013241e-01 1.3191406429e-01 -1.3014994562e-01
-4.7583982348e-01 1.3482421637e-01 -1.3015037775e-01
-4.7415038943e-01 1.4066405594e-01 -1.3015127182e-01
-4.7239255905e-01 1.4646483958e-01 -1.3015218079e-01
-4.7148436308e-01 1.4937499166e-01 -1.3015262783e-01
-4.7056639194e-01 1.5226562321e-01 -1.3015308976e-01
-4.6961912513e-01 1.5513671935e-01 -1.3015355170e-01
-4.6866211295e-01 1.5802733600e-01 -1.3015402853e-01
-4.6668943763e-01 1.6376952827e-01 -1.3015496731e-01
-4.6568357944e-01 1.6662108898e-01 -1.3015544415e-01
-4.6464842558e-01 1.6947264969e-01 -1.3015593588e-01
-4.6253904700e-01 1.7517577112e-01 -1.3015690446e-01
-4.6145507693e-01 1.7800781131e-01 -1.3015739620e-01
-4.6036133170e-01 1.8083983660e-01 -1.3015790284e-01
-4.5810544491e-01 1.8646484613e-01 -1.3015890121e-01
-4.5696288347e-01 1.8927733600e-01 -1.3015940785e-01
-4.5579099655e-01 1.9207030535e-01 -1.3015991449e-01
-4.5093747973e-01 2.0320312679e-01 -1.3016198575e-01
-4.4582030177e-01 2.1421875060e-01 -1.3016410172e-01
-4.4316405058e-01 2.1966797113e-01 -1.3016517460e-01
-4.4180664420e-01 2.2240233421e-01 -1.3016572595e-01
-4.3764647841e-01 2.3048827052e-01 -1.3016737998e-01
-4.3333983421e-01 2.3851561546e-01 -1.3016904891e-01
-4.3186521530e-01 2.4117186666e-01 -1.3016961515e-01
-4.3038085103e-01 2.4380858243e-01 -1.3017018139e-01
-4.2427733541e-01 2.5429686904e-01 -1.3017249107e-01
-4.2270505428e-01 2.5691404939e-01 -1.3017307222e-01
-4.2112302780e-01 2.5949218869e-01 -1.3017365336e-01
-4.1953122616e-01 2.6207029819e-01 -1.3017424941e-01
-4.1297850013e-01 2.7230468392e-01 -1.3017661870e-01
-4.1129881144e-01 2.7482420206e-01 -1.3017721474e-01
-4.0790039301e-01 2.7986326814e-01 -1.3017843664e-01
-4.0444335341e-01 2.8484374285e-01 -1.3017964363e-01
-4.0268552303e-01 2.8732421994e-01 -1.3018026948e-01
-4.0091794729e-01 2.8978514671e-01 -1.3018088043e-01
-3.9369139075e-01 2.9955077171e-01 -1.3018338382e-01
-3.9184570312e-01 3.0195310712e-01 -1.3018400967e-01
-3.8999024034e-01 3.0435547233e-01 -1.3018463552e-01
-3.8811522722e-01 3.0673828721e-01 -1.3018526137e-01
-3.8432615995e-01 3.1148436666e-01 -1.3018654287e-01
-3.8047850132e-01 3.1619140506e-01 -1.3018783927e-01
-3.7658202648e-01 3.2083982229e-01 -1.3018912077e-01
-3.7459960580e-01 3.2314452529e-01 -1.3018976152e-01
-3.6452147365e-01 3.3447265625e-01 -1.3019305468e-01
-3.6040037870e-01 3.3892577887e-01 -1.3019438088e-01
-3.5831055045e-01 3.4113281965e-01 -1.3019503653e-01
-3.5621091723e-01 3.4332031012e-01 -1.3019570708e-01
-3.4983396530e-01 3.4982421994e-01 -1.3019773364e-01
-3.4768554568e-01 3.5197263956e-01 -1.3019840419e-01
-3.4551757574e-01 3.5410156846e-01 -1.3019908965e-01
-3.4334960580e-01 3.5621091723e-01 -1.3019976020e-01
-3.4115234017e-01 3.5832029581e-01 -1.3020044565e-01
-3.3450195193e-01 3.6453124881e-01 -1.3020250201e-01
-3.3226561546e-01 3.6658203602e-01 -1.3020318747e-01
-3.3000975847e-01 3.6861327291e-01 -1.3020387292e-01
-3.2774412632e-01 3.7064450979e-01 -1.3020457327e-01
-3.2546874881e-01 3.7263670564e-01 -1.3020525873e-01
-3.2086914778e-01 3.7662109733e-01 -1.3020665944e-01
-3.1623047590e-01 3.8052734733e-01 -1.3020804524e-01
-3.1389647722e-01 3.8246092200e-01 -1.3020874560e-01
-3.1154295802e-01 3.8439452648e-01 -1.3020944595e-01
-3.0917969346e-01 3.8628906012e-01 -1.3021016121e-01
-3.0202147365e-01 3.9193359017e-01 -1.3021227717e-01
-2.9960936308e-01 3.9376953244e-01 -1.3021297753e-01
-2.9475584626e-01 3.9742186666e-01 -1.3021440804e-01
-2.8739258647e-01 4.0279296041e-01 -1.3021655381e-01
-2.7238279581e-01 4.1310545802e-01 -1.3022087514e-01
-2.6985350251e-01 4.1476562619e-01 -1.3022159040e-01
-2.6473632455e-01 4.1806638241e-01 -1.3022303581e-01
-2.6216796041e-01 4.1968747973e-01 -1.3022376597e-01
-2.5700193644e-01 4.2287108302e-01 -1.3022521138e-01
-2.4655273557e-01 4.2906248569e-01 -1.3022813201e-01
-2.4127928913e-01 4.3205076456e-01 -1.3022959232e-01
-2.3862303793e-01 4.3353515863e-01 -1.3023032248e-01
-2.3060546815e-01 4.3785154819e-01 -1.3023252785e-01
-2.2791014612e-01 4.3925780058e-01 -1.3023327291e-01
-2.2521483898e-01 4.4066405296e-01 -1.3023400307e-01
-2.2250975668e-01 4.4203123450e-01 -1.3023474813e-01
-2.1979491413e-01 4.4339841604e-01 -1.3023547828e-01
-2.1433593333e-01 4.4607421756e-01 -1.3023695350e-01
-2.1160155535e-01 4.4738280773e-01 -1.3023768365e-01
-2.0884765685e-01 4.4867187738e-01 -1.3023842871e-01
-1.9778320193e-01 4.5367187262e-01 -1.3024137914e-01
-1.9499023259e-01 4.5488280058e-01 -1.3024212420e-01
-1.9219726324e-01 4.5607420802e-01 -1.3024286926e-01
-1.8377929926e-01 4.5953124762e-01 -1.3024507463e-01
-1.7812499404e-01 4.6175780892e-01 -1.3024656475e-01
-1.7529296875e-01 4.6285155416e-01 -1.3024730980e-01
-1.7245116830e-01 4.6392577887e-01 -1.3024805486e-01
-1.6959960759e-01 4.6496093273e-01 -1.3024878502e-01
-1.6673827171e-01 4.6599608660e-01 -1.3024953008e-01
-1.6101561487e-01 4.6802732348e-01 -1.3025102019e-01
-1.5237304568e-01 4.7091796994e-01 -1.3025322556e-01
-1.4948241413e-01 4.7183594108e-01 -1.3025397062e-01
-1.4658202231e-01 4.7275388241e-01 -1.3025470078e-01
-1.4077147841e-01 4.7451171279e-01 -1.3025617599e-01
-1.3786132634e-01 4.7537109256e-01 -1.3025692105e-01
-1.3494139910e-01 4.7621092200e-01 -1.3025766611e-01
-1.2909179926e-01 4.7785153985e-01 -1.3025914133e-01
-1.2615233660e-01 4.7863280773e-01 -1.3025987148e-01
-1.0845702887e-01 4.8296874762e-01 -1.3026428223e-01
-1.0548827797e-01 4.8363280296e-01 -1.3026501238e-01
-1.0251952708e-01 4.8425778747e-01 -1.3026574254e-01
-9.9550776184e-02 4.8488280177e-01 -1.3026648760e-01
-9.6572265029e-02 4.8548826575e-01 -1.3026720285e-01
-9.3593746424e-02 4.8607420921e-01 -1.3026794791e-01
-9.0605467558e-02 4.8664060235e-01 -1.3026867807e-01
-7.5644530356e-02 4.8921874166e-01 -1.3027229905e-01
-6.0595702380e-02 4.9130856991e-01 -1.3027592003e-01
-5.7587888092e-02 4.9167966843e-01 -1.3027663529e-01
-5.4570309818e-02 4.9203124642e-01 -1.3027735054e-01
-5.1542967558e-02 4.9236327410e-01 -1.3027806580e-01
-4.8525389284e-02 4.9265623093e-01 -1.3027878106e-01
-4.5498047024e-02 4.9294921756e-01 -1.3027949631e-01
-3.9443358779e-02 4.9347653985e-01 -1.3028092682e-01
-3.3388670534e-02 4.9394530058e-01 -1.3028234243e-01
-3.0361328274e-02 4.9414062500e-01 -1.3028304279e-01
-2.4287108332e-02 4.9447265267e-01 -1.3028447330e-01
-2.1259766072e-02 4.9460935593e-01 -1.3028515875e-01
-1.8222656101e-02 4.9474608898e-01 -1.3028587401e-01
-1.5185546130e-02 4.9484375119e-01 -1.3028657436e-01
-9.1113280505e-03 4.9499997497e-01 -1.3028797507e-01
-6.0742185451e-03 4.9505859613e-01 -1.3028866053e-01
-3.0371092726e-03 4.9507811666e-01 -1.3028936088e-01
3.0371092726e-03 4.9507811666e-01 -1.3029074669e-01
1.2148437090e-02 4.9496093392e-01 -1.3029281795e-01
1.8222656101e-02 4.9476560950e-01 -1.3029417396e-01
2.1259766072e-02 4.9464842677e-01 -1.3029485941e-01
2.7324218303e-02 4.9435546994e-01 -1.3029621542e-01
3.6425780505e-02 4.9378904700e-01 -1.3029824197e-01
3.9453122765e-02 4.9355468154e-01 -1.3029891253e-01
4.2480468750e-02 4.9330076575e-01 -1.3029958308e-01
4.5507811010e-02 4.9302732944e-01 -1.3030025363e-01
5.1552731544e-02 4.9244138598e-01 -1.3030157983e-01
6.0615234077e-02 4.9142578244e-01 -1.3030354679e-01
6.3623048365e-02 4.9103513360e-01 -1.3030420244e-01
6.6640622914e-02 4.9064451456e-01 -1.3030485809e-01
6.9648437202e-02 4.9023437500e-01 -1.3030551374e-01
7.2656251490e-02 4.8980468512e-01 -1.3030615449e-01
7.8662104905e-02 4.8886716366e-01 -1.3030743599e-01
8.1660151482e-02 4.8837888241e-01 -1.3030807674e-01
8.7646484375e-02 4.8734372854e-01 -1.3030935824e-01
1.0552734137e-01 4.8380857706e-01 -1.3031312823e-01
1.0849609226e-01 4.8314452171e-01 -1.3031373918e-01
1.1145507544e-01 4.8248046637e-01 -1.3031436503e-01
1.1737304181e-01 4.8107421398e-01 -1.3031558692e-01
1.2032226473e-01 4.8035153747e-01 -1.3031619787e-01
1.2327148020e-01 4.7960937023e-01 -1.3031680882e-01
1.2621092796e-01 4.7884765267e-01 -1.3031740487e-01
1.2915039062e-01 4.7806638479e-01 -1.3031801581e-01
1.3208007812e-01 4.7726562619e-01 -1.3031861186e-01
1.3500976562e-01 4.7644528747e-01 -1.3031920791e-01
1.4083984494e-01 4.7476562858e-01 -1.3032040000e-01
1.4374999702e-01 4.7388669848e-01 -1.3032098114e-01
1.4666014910e-01 4.7300779819e-01 -1.3032156229e-01
1.4956054091e-01 4.7208982706e-01 -1.3032214344e-01
1.5822264552e-01 4.6927732229e-01 -1.3032388687e-01
1.6110351682e-01 4.6828123927e-01 -1.3032445312e-01
1.6397461295e-01 4.6728515625e-01 -1.3032501936e-01
1.6684569418e-01 4.6628904343e-01 -1.3032558560e-01
1.7254883051e-01 4.6419921517e-01 -1.3032670319e-01
1.7540039122e-01 4.6314451098e-01 -1.3032726943e-01
1.7823241651e-01 4.6205076575e-01 -1.3032780588e-01
1.8389648199e-01 4.5984372497e-01 -1.3032892346e-01
1.8952147663e-01 4.5755857229e-01 -1.3032999635e-01
1.9233398139e-01 4.5638671517e-01 -1.3033054769e-01
1.9791992009e-01 4.5398434997e-01 -1.3033160567e-01
2.0347656310e-01 4.5152342319e-01 -1.3033266366e-01
2.0624023676e-01 4.5027342439e-01 -1.3033317029e-01
2.1450194716e-01 4.4640624523e-01 -1.3033472002e-01
2.1723632514e-01 4.4507810473e-01 -1.3033522666e-01
2.1996092796e-01 4.4374999404e-01 -1.3033573329e-01
2.2268554568e-01 4.4238281250e-01 -1.3033623993e-01
2.2539061308e-01 4.4101560116e-01 -1.3033674657e-01
2.2809569538e-01 4.3962889910e-01 -1.3033723831e-01
2.3881834745e-01 4.3390622735e-01 -1.3033919036e-01
2.4147459865e-01 4.3244138360e-01 -1.3033965230e-01
2.4413084984e-01 4.3093749881e-01 -1.3034012914e-01
2.4940429628e-01 4.2791014910e-01 -1.3034108281e-01
2.5202149153e-01 4.2638671398e-01 -1.3034154475e-01
2.5463867188e-01 4.2482420802e-01 -1.3034200668e-01
2.5723633170e-01 4.2326170206e-01 -1.3034246862e-01
2.5983399153e-01 4.2167967558e-01 -1.3034291565e-01
2.6241210103e-01 4.2007812858e-01 -1.3034336269e-01
2.7010741830e-01 4.1517576575e-01 -1.3034468889e-01
2.7264648676e-01 4.1351562738e-01 -1.3034513593e-01
2.7518555522e-01 4.1183593869e-01 -1.3034556806e-01
2.8520506620e-01 4.0496093035e-01 -1.3034725189e-01
2.8768554330e-01 4.0320312977e-01 -1.3034765422e-01
2.9015624523e-01 4.0142577887e-01 -1.3034807146e-01
2.9261717200e-01 3.9964842796e-01 -1.3034847379e-01
2.9506835341e-01 3.9785155654e-01 -1.3034887612e-01
2.9749998450e-01 3.9603513479e-01 -1.3034927845e-01
3.0234375596e-01 3.9234372973e-01 -1.3035006821e-01
3.0713865161e-01 3.8861328363e-01 -1.3035082817e-01
3.2354491949e-01 3.7507811189e-01 -1.3035340607e-01
3.2583984733e-01 3.7308591604e-01 -1.3035374880e-01
3.3040037751e-01 3.6906248331e-01 -1.3035443425e-01
3.3265623450e-01 3.6703124642e-01 -1.3035477698e-01
3.3713865280e-01 3.6291015148e-01 -1.3035544753e-01
3.3935546875e-01 3.6083984375e-01 -1.3035577536e-01
3.4157225490e-01 3.5874998569e-01 -1.3035610318e-01
3.4594726562e-01 3.5453122854e-01 -1.3035672903e-01
3.4811523557e-01 3.5240232944e-01 -1.3035702705e-01
3.5241210461e-01 3.4810546041e-01 -1.3035763800e-01
3.5454100370e-01 3.4593749046e-01 -1.3035793602e-01
3.5876953602e-01 3.4156247973e-01 -1.3035851717e-01
3.6908203363e-01 3.3041015267e-01 -1.3035991788e-01
3.7110349536e-01 3.2814452052e-01 -1.3036017120e-01
3.7310546637e-01 3.2585936785e-01 -1.3036042452e-01
3.7509766221e-01 3.2355469465e-01 -1.3036069274e-01
3.7708008289e-01 3.2124999166e-01 -1.3036093116e-01
3.8292968273e-01 3.1425780058e-01 -1.3036166131e-01
3.8485351205e-01 3.1191405654e-01 -1.3036189973e-01
3.8865232468e-01 3.0716794729e-01 -1.3036236167e-01
3.9239257574e-01 3.0236327648e-01 -1.3036279380e-01
3.9790037274e-01 2.9509764910e-01 -1.3036341965e-01
4.0149414539e-01 2.9019531608e-01 -1.3036380708e-01
4.0326172113e-01 2.8773435950e-01 -1.3036400080e-01
4.0501952171e-01 2.8525391221e-01 -1.3036417961e-01
4.1358396411e-01 2.7269530296e-01 -1.3036505878e-01
4.2175781727e-01 2.5988280773e-01 -1.3036580384e-01
4.2333984375e-01 2.5728514791e-01 -1.3036593795e-01
4.2647460103e-01 2.5207030773e-01 -1.3036619127e-01
4.2800781131e-01 2.4945311248e-01 -1.3036632538e-01
4.3103516102e-01 2.4417968094e-01 -1.3036654890e-01
4.3400388956e-01 2.3886717856e-01 -1.3036677241e-01
4.3545898795e-01 2.3621092737e-01 -1.3036687672e-01
4.3973630667e-01 2.2814452648e-01 -1.3036714494e-01
4.4249999523e-01 2.2273437679e-01 -1.3036730886e-01
4.4520506263e-01 2.1728515625e-01 -1.3036745787e-01
4.5040038228e-01 2.0628905296e-01 -1.3036768138e-01
4.5166015625e-01 2.0353515446e-01 -1.3036774099e-01
4.5411130786e-01 1.9796875119e-01 -1.3036781549e-01
4.5532226562e-01 1.9517578185e-01 -1.3036784530e-01
4.5768553019e-01 1.8958984315e-01 -1.3036790490e-01
4.5883786678e-01 1.8677733839e-01 -1.3036791980e-01
4.5998045802e-01 1.8394531310e-01 -1.3036793470e-01
4.6109375358e-01 1.8113280833e-01 -1.3036794960e-01
4.6219724417e-01 1.7830078304e-01 -1.3036794960e-01
4.6328124404e-01 1.7544920743e-01 -1.3036794960e-01
4.6540036798e-01 1.6974608600e-01 -1.3036794960e-01
4.6745115519e-01 1.6402342916e-01 -1.3036791980e-01
4.7317382693e-01 1.4671874046e-01 -1.3036771119e-01
4.7493162751e-01 1.4089843631e-01 -1.3036762178e-01
4.7579100728e-01 1.3798828423e-01 -1.3036756217e-01
4.7744140029e-01 1.3212890923e-01 -1.3036742806e-01
4.8054686189e-01 1.2037108839e-01 -1.3036711514e-01
4.8198240995e-01 1.1447264999e-01 -1.3036693633e-01
4.8267576098e-01 1.1150390655e-01 -1.3036683202e-01
4.8334959149e-01 1.0853515565e-01 -1.3036672771e-01
4.8401364684e-01 1.0556640476e-01 -1.3036662340e-01
4.8464843631e-01 1.0259765387e-01 -1.3036651909e-01
4.8526367545e-01 9.9628902972e-02 -1.3036639988e-01
4.8586913943e-01 9.6640624106e-02 -1.3036628067e-01
4.8756834865e-01 8.7695308030e-02 -1.3036587834e-01
4.8860350251e-01 8.1699214876e-02 -1.3036559522e-01
4.8957028985e-01 7.5703121722e-02 -1.3036529720e-01
4.9001953006e-01 7.2695307434e-02 -1.3036513329e-01
4.9045896530e-01 6.9687500596e-02 -1.3036498427e-01
4.9127927423e-01 6.3652344048e-02 -1.3036464155e-01
4.9166014791e-01 6.0644529760e-02 -1.3036447763e-01
4.9202147126e-01 5.7617187500e-02 -1.3036428392e-01
4.9268552661e-01 5.1582030952e-02 -1.3036392629e-01
4.9328124523e-01 4.5527342707e-02 -1.3036352396e-01
4.9379882216e-01 3.9472654462e-02 -1.3036312163e-01
4.9403318763e-01 3.6445312202e-02 -1.3036291301e-01
4.9424803257e-01 3.3417966217e-02 -1.3036270440e-01
4.9444335699e-01 3.0371092260e-02 -1.3036249578e-01
4.9477538466e-01 2.4316405877e-02 -1.3036203384e-01
4.9492186308e-01 2.1269530058e-02 -1.3036179543e-01
4.9503904581e-01 1.8242187798e-02 -1.3036157191e-01
4.9522459507e-01 1.2167968787e-02 -1.3036108017e-01
4.9528318644e-01 9.1210938990e-03 -1.3036082685e-01
4.9533203244e-01 6.0742185451e-03 -1.3036058843e-01
4.9536132812e-01 3.0468748882e-03 -1.3036032021e-01
4.9533203244e-01 -6.0742185451e-03 -1.3035953045e-01
4.9512693286e-01 -1.5195311978e-02 -1.3035869598e-01
4.9490234256e-01 -2.1269530058e-02 -1.3035811484e-01
4.9476560950e-01 -2.4296874180e-02 -1.3035781682e-01
4.9459961057e-01 -2.7343750000e-02 -1.3035751879e-01
4.9442380667e-01 -3.0371092260e-02 -1.3035722077e-01
4.9325194955e-01 -4.5527342707e-02 -1.3035562634e-01
4.9296873808e-01 -4.8554684967e-02 -1.3035531342e-01
4.9265623093e-01 -5.1582030952e-02 -1.3035497069e-01
4.9198240042e-01 -5.7617187500e-02 -1.3035430014e-01
4.9162107706e-01 -6.0624998063e-02 -1.3035395741e-01
4.9124023318e-01 -6.3652344048e-02 -1.3035361469e-01
4.9083983898e-01 -6.6660158336e-02 -1.3035325706e-01
4.9041992426e-01 -6.9667965174e-02 -1.3035289943e-01
4.8998045921e-01 -7.2675779462e-02 -1.3035252690e-01
4.8952147365e-01 -7.5683593750e-02 -1.3035216928e-01
4.8904296756e-01 -7.8691408038e-02 -1.3035181165e-01
4.8696288466e-01 -9.0664058924e-02 -1.3035029173e-01
4.8639646173e-01 -9.3652345240e-02 -1.3034990430e-01
4.8458984494e-01 -1.0257812589e-01 -1.3034871221e-01
4.8394531012e-01 -1.0556640476e-01 -1.3034830987e-01
4.8260742426e-01 -1.1148437113e-01 -1.3034749031e-01
4.7972655296e-01 -1.2330077589e-01 -1.3034582138e-01
4.7817382216e-01 -1.2917968631e-01 -1.3034495711e-01
4.7736325860e-01 -1.3210937381e-01 -1.3034451008e-01
4.7654294968e-01 -1.3503906131e-01 -1.3034407794e-01
4.7485351562e-01 -1.4085936546e-01 -1.3034318388e-01
4.7124999762e-01 -1.5248046815e-01 -1.3034135103e-01
4.6933591366e-01 -1.5824218094e-01 -1.3034042716e-01
4.6633788943e-01 -1.6685546935e-01 -1.3033899665e-01
4.6530273557e-01 -1.6970703006e-01 -1.3033850491e-01
4.6424803138e-01 -1.7255859077e-01 -1.3033801317e-01
4.6318358183e-01 -1.7541015148e-01 -1.3033753633e-01
4.6209961176e-01 -1.7824217677e-01 -1.3033702970e-01
4.5873045921e-01 -1.8671874702e-01 -1.3033553958e-01
4.5757812262e-01 -1.8953125179e-01 -1.3033501804e-01
4.5400390029e-01 -1.9791014493e-01 -1.3033348322e-01
4.5278319716e-01 -2.0070311427e-01 -1.3033296168e-01
4.5153319836e-01 -2.0347656310e-01 -1.3033244014e-01
4.4900390506e-01 -2.0900389552e-01 -1.3033138216e-01
4.4507810473e-01 -2.1722656488e-01 -1.3032977283e-01
4.4373047352e-01 -2.1994140744e-01 -1.3032923639e-01
4.3819335103e-01 -2.3076170683e-01 -1.3032703102e-01
4.3532225490e-01 -2.3613280058e-01 -1.3032591343e-01
4.3386718631e-01 -2.3878905177e-01 -1.3032534719e-01
4.2939451337e-01 -2.4673826993e-01 -1.3032364845e-01
4.2632812262e-01 -2.5199219584e-01 -1.3032248616e-01
4.2477539182e-01 -2.5458982587e-01 -1.3032190502e-01
4.2320311069e-01 -2.5718748569e-01 -1.3032132387e-01
4.1838866472e-01 -2.6494139433e-01 -1.3031955063e-01
4.1509765387e-01 -2.7005860209e-01 -1.3031835854e-01
4.1343748569e-01 -2.7259764075e-01 -1.3031777740e-01
4.1005858779e-01 -2.7763670683e-01 -1.3031655550e-01
4.0661132336e-01 -2.8265625238e-01 -1.3031533360e-01
4.0309569240e-01 -2.8761717677e-01 -1.3031411171e-01
3.9773437381e-01 -2.9498046637e-01 -1.3031224906e-01
3.9591795206e-01 -2.9742187262e-01 -1.3031162322e-01
3.9408200979e-01 -2.9984372854e-01 -1.3031099737e-01
3.9036130905e-01 -3.0464842916e-01 -1.3030973077e-01
3.8659179211e-01 -3.0941405892e-01 -1.3030846417e-01
3.8276365399e-01 -3.1414061785e-01 -1.3030718267e-01
3.8083007932e-01 -3.1646484137e-01 -1.3030654192e-01
3.7887695432e-01 -3.1880858541e-01 -1.3030588627e-01
3.7691405416e-01 -3.2111328840e-01 -1.3030524552e-01
3.7493163347e-01 -3.2341796160e-01 -1.3030458987e-01
3.6891600490e-01 -3.3027341962e-01 -1.3030262291e-01
3.6482420564e-01 -3.3476561308e-01 -1.3030129671e-01
3.6276367307e-01 -3.3699217439e-01 -1.3030064106e-01
3.6068359017e-01 -3.3921873569e-01 -1.3029997051e-01
3.5010740161e-01 -3.5011717677e-01 -1.3029661775e-01
3.4794920683e-01 -3.5224607587e-01 -1.3029594719e-01
3.4578123689e-01 -3.5437500477e-01 -1.3029526174e-01
3.4359374642e-01 -3.5648435354e-01 -1.3029457629e-01
3.3697265387e-01 -3.6275389791e-01 -1.3029251993e-01
3.3473631740e-01 -3.6480468512e-01 -1.3029183447e-01
3.3249023557e-01 -3.6685547233e-01 -1.3029114902e-01
3.3023437858e-01 -3.6888670921e-01 -1.3029046357e-01
3.2795897126e-01 -3.7089842558e-01 -1.3028977811e-01
3.2337889075e-01 -3.7488281727e-01 -1.3028837740e-01
3.1874999404e-01 -3.7882810831e-01 -1.3028699160e-01
3.1407225132e-01 -3.8271483779e-01 -1.3028559089e-01
3.0697265267e-01 -3.8841795921e-01 -1.3028346002e-01
3.0458006263e-01 -3.9029297233e-01 -1.3028275967e-01
3.0217772722e-01 -3.9214843512e-01 -1.3028205931e-01
2.9490232468e-01 -3.9763671160e-01 -1.3027991354e-01
2.8752928972e-01 -4.0298828483e-01 -1.3027776778e-01
2.8504881263e-01 -4.0474608541e-01 -1.3027705252e-01
2.8005859256e-01 -4.0820312500e-01 -1.3027562201e-01
2.7754881978e-01 -4.0992185473e-01 -1.3027489185e-01
2.7502930164e-01 -4.1162109375e-01 -1.3027417660e-01
2.7250000834e-01 -4.1330078244e-01 -1.3027344644e-01
2.6483398676e-01 -4.1822263598e-01 -1.3027128577e-01
2.6226562262e-01 -4.1984373331e-01 -1.3027055562e-01
2.5968748331e-01 -4.2144531012e-01 -1.3026982546e-01
2.5187498331e-01 -4.2615234852e-01 -1.3026763499e-01
2.4663084745e-01 -4.2919921875e-01 -1.3026617467e-01
2.4398437142e-01 -4.3070310354e-01 -1.3026544452e-01
2.3333983123e-01 -4.3654295802e-01 -1.3026250899e-01
2.3065428436e-01 -4.3796873093e-01 -1.3026177883e-01
2.2795897722e-01 -4.3937498331e-01 -1.3026104867e-01
2.1709960699e-01 -4.4482421875e-01 -1.3025809824e-01
2.0887695253e-01 -4.4874998927e-01 -1.3025587797e-01
2.0057617128e-01 -4.5249998569e-01 -1.3025365770e-01
1.9779296219e-01 -4.5373046398e-01 -1.3025292754e-01
1.9500976801e-01 -4.5492187142e-01 -1.3025218248e-01
1.8940429389e-01 -4.5728513598e-01 -1.3025069237e-01
1.7812499404e-01 -4.6177732944e-01 -1.3024774194e-01
1.6100585461e-01 -4.6800780296e-01 -1.3024330139e-01
1.4946289361e-01 -4.7181639075e-01 -1.3024033606e-01
1.4366210997e-01 -4.7359374166e-01 -1.3023886085e-01
1.4075194299e-01 -4.7447264194e-01 -1.3023811579e-01
1.3784179091e-01 -4.7533202171e-01 -1.3023738563e-01
1.3492187858e-01 -4.7615233064e-01 -1.3023665547e-01
1.3199219108e-01 -4.7697263956e-01 -1.3023591042e-01
1.2613281608e-01 -4.7855466604e-01 -1.3023443520e-01
1.2024413794e-01 -4.8005858064e-01 -1.3023297489e-01
1.1729492247e-01 -4.8078122735e-01 -1.3023222983e-01
1.0842773318e-01 -4.8285156488e-01 -1.3023003936e-01
1.0545898229e-01 -4.8351562023e-01 -1.3022929430e-01
1.0249023139e-01 -4.8414060473e-01 -1.3022856414e-01
9.3564450741e-02 -4.8593747616e-01 -1.3022637367e-01
9.0576171875e-02 -4.8650389910e-01 -1.3022564352e-01
8.7587885559e-02 -4.8705077171e-01 -1.3022492826e-01
8.4599606693e-02 -4.8757812381e-01 -1.3022418320e-01
8.1611327827e-02 -4.8808592558e-01 -1.3022346795e-01
7.8613281250e-02 -4.8857420683e-01 -1.3022273779e-01
7.5615234673e-02 -4.8904296756e-01 -1.3022200763e-01
7.2607420385e-02 -4.8949217796e-01 -1.3022129238e-01
6.6591791809e-02 -4.9033200741e-01 -1.3021984696e-01
6.0576170683e-02 -4.9111327529e-01 -1.3021840155e-01
5.7558592409e-02 -4.9148437381e-01 -1.3021768630e-01
5.4541014135e-02 -4.9181640148e-01 -1.3021697104e-01
4.5478515327e-02 -4.9273437262e-01 -1.3021482527e-01
4.2451169342e-02 -4.9298825860e-01 -1.3021411002e-01
3.6396484822e-02 -4.9347653985e-01 -1.3021269441e-01
3.3369138837e-02 -4.9369138479e-01 -1.3021199405e-01
2.7314452454e-02 -4.9404296279e-01 -1.3021057844e-01
2.1240234375e-02 -4.9433591962e-01 -1.3020916283e-01
1.8212890252e-02 -4.9447265267e-01 -1.3020846248e-01
1.5175781213e-02 -4.9457031488e-01 -1.3020776212e-01
6.0742185451e-03 -4.9474608898e-01 -1.3020566106e-01
3.0371092726e-03 -4.9478515983e-01 -1.3020497561e-01
-3.0371092726e-03 -4.9476560950e-01 -1.3020358980e-01
-9.1113280505e-03 -4.9468749762e-01 -1.3020221889e-01
-1.2138671242e-02 -4.9462890625e-01 -1.3020153344e-01
-2.4277342483e-02 -4.9416014552e-01 -1.3019880652e-01
-2.7304686606e-02 -4.9400389194e-01 -1.3019812107e-01
-3.3369138837e-02 -4.9363279343e-01 -1.3019677997e-01
-3.9423827082e-02 -4.9318358302e-01 -1.3019543886e-01
-4.5468747616e-02 -4.9265623093e-01 -1.3019411266e-01
-5.4531250149e-02 -4.9171873927e-01 -1.3019211590e-01
-5.7548828423e-02 -4.9138671160e-01 -1.3019146025e-01
-6.0556638986e-02 -4.9101561308e-01 -1.3019080460e-01
-6.9589845836e-02 -4.8980468512e-01 -1.3018885255e-01
-7.5595699251e-02 -4.8890623450e-01 -1.3018757105e-01
-8.1582032144e-02 -4.8794922233e-01 -1.3018627465e-01
-8.4580078721e-02 -4.8742187023e-01 -1.3018563390e-01
-8.7568357587e-02 -4.8689451814e-01 -1.3018500805e-01
-9.3535155058e-02 -4.8578125238e-01 -1.3018374145e-01
-1.1134765297e-01 -4.8199218512e-01 -1.3018001616e-01
-1.1429687589e-01 -4.8130857944e-01 -1.3017940521e-01
-1.1725585908e-01 -4.8058593273e-01 -1.3017879426e-01
-1.2313476205e-01 -4.7912108898e-01 -1.3017757237e-01
-1.2900389731e-01 -4.7755858302e-01 -1.3017636538e-01
-1.3193358481e-01 -4.7675779462e-01 -1.3017578423e-01
-1.3777343929e-01 -4.7509765625e-01 -1.3017459214e-01
-1.4068359137e-01 -4.7423827648e-01 -1.3017399609e-01
-1.4938476682e-01 -4.7156247497e-01 -1.3017225266e-01
-1.5227538347e-01 -4.7064453363e-01 -1.3017167151e-01
-1.5516601503e-01 -4.6968749166e-01 -1.3017109036e-01
-1.6091796756e-01 -4.6775388718e-01 -1.3016995788e-01
-1.6377928853e-01 -4.6675780416e-01 -1.3016937673e-01
-1.6664062440e-01 -4.6574217081e-01 -1.3016881049e-01
-1.7234374583e-01 -4.6365234256e-01 -1.3016770780e-01
-1.8366210163e-01 -4.5927733183e-01 -1.3016550243e-01
-1.8647460639e-01 -4.5814451575e-01 -1.3016495109e-01
-1.9208984077e-01 -4.5582029223e-01 -1.3016387820e-01
-1.9487304986e-01 -4.5462888479e-01 -1.3016334176e-01
-1.9766600430e-01 -4.5341795683e-01 -1.3016282022e-01
-2.0043945312e-01 -4.5218747854e-01 -1.3016228378e-01
-2.0597656071e-01 -4.4970703125e-01 -1.3016124070e-01
-2.1147459745e-01 -4.4712889194e-01 -1.3016021252e-01
-2.1694335341e-01 -4.4449219108e-01 -1.3015919924e-01
-2.1966797113e-01 -4.4316405058e-01 -1.3015869260e-01
-2.2238281369e-01 -4.4179686904e-01 -1.3015818596e-01
-2.2508788109e-01 -4.4042968750e-01 -1.3015769422e-01
-2.2778320312e-01 -4.3904295564e-01 -1.3015718758e-01
-2.3046875000e-01 -4.3763670325e-01 -1.3015671074e-01
-2.3582030833e-01 -4.3476560712e-01 -1.3015572727e-01
-2.4114257097e-01 -4.3183591962e-01 -1.3015477359e-01
-2.4377928674e-01 -4.3035155535e-01 -1.3015429676e-01
-2.4904295802e-01 -4.2732420564e-01 -1.3015337288e-01
-2.5686523318e-01 -4.2265623808e-01 -1.3015198708e-01
-2.5945311785e-01 -4.2107421160e-01 -1.3015154004e-01
-2.6715821028e-01 -4.1623046994e-01 -1.3015019894e-01
-2.6970702410e-01 -4.1457030177e-01 -1.3014976680e-01
-2.7223631740e-01 -4.1291013360e-01 -1.3014931977e-01
-2.7476561069e-01 -4.1123044491e-01 -1.3014888763e-01
-2.7728515863e-01 -4.0953123569e-01 -1.3014847040e-01
-2.8477537632e-01 -4.0435546637e-01 -1.3014720380e-01
-2.8724607825e-01 -4.0259763598e-01 -1.3014680147e-01
-2.8971678019e-01 -4.0082031488e-01 -1.3014639914e-01
-2.9460936785e-01 -3.9724609256e-01 -1.3014557958e-01
-2.9945310950e-01 -3.9359372854e-01 -1.3014480472e-01
-3.0186522007e-01 -3.9175781608e-01 -1.3014440238e-01
-3.0665037036e-01 -3.8800778985e-01 -1.3014364243e-01
-3.0902343988e-01 -3.8613280654e-01 -1.3014326990e-01
-3.1138670444e-01 -3.8421875238e-01 -1.3014289737e-01
-3.1607422233e-01 -3.8037109375e-01 -1.3014215231e-01
-3.2071289420e-01 -3.7646484375e-01 -1.3014143705e-01
-3.2301756740e-01 -3.7447264791e-01 -1.3014107943e-01
-3.2531249523e-01 -3.7250000238e-01 -1.3014073670e-01
-3.3658203483e-01 -3.6232420802e-01 -1.3013903797e-01
-3.3879882097e-01 -3.6025390029e-01 -1.3013872504e-01
-3.4099608660e-01 -3.5816404223e-01 -1.3013839722e-01
-3.4967771173e-01 -3.4968748689e-01 -1.3013716042e-01
-3.5815429688e-01 -3.4099608660e-01 -1.3013596833e-01
-3.6024412513e-01 -3.3880859613e-01 -1.3013568521e-01
-3.6231443286e-01 -3.3658203483e-01 -1.3013540208e-01
-3.6436522007e-01 -3.3435547352e-01 -1.3013513386e-01
-3.6641600728e-01 -3.3210936189e-01 -1.3013486564e-01
-3.7045899034e-01 -3.2757812738e-01 -1.3013432920e-01
-3.7246093154e-01 -3.2531249523e-01 -1.3013407588e-01
-3.7642577291e-01 -3.2068359852e-01 -1.3013356924e-01
-3.7838867307e-01 -3.1837889552e-01 -1.3013331592e-01
-3.8417968154e-01 -3.1134766340e-01 -1.3013261557e-01
-3.8796874881e-01 -3.0662107468e-01 -1.3013215363e-01
-3.9537107944e-01 -2.9699218273e-01 -1.3013130426e-01
-3.9898437262e-01 -2.9212889075e-01 -1.3013090193e-01
-4.0253904462e-01 -2.8720703721e-01 -1.3013051450e-01
-4.0602537990e-01 -2.8224608302e-01 -1.3013015687e-01
-4.0774413943e-01 -2.7974608541e-01 -1.3012997806e-01
-4.0945312381e-01 -2.7724608779e-01 -1.3012979925e-01
-4.1115233302e-01 -2.7472656965e-01 -1.3012963533e-01
-4.1283202171e-01 -2.7218750119e-01 -1.3012947142e-01
-4.2097654939e-01 -2.5939452648e-01 -1.3012872636e-01
-4.2721679807e-01 -2.4898436666e-01 -1.3012820482e-01
-4.3024411798e-01 -2.4373047054e-01 -1.3012796640e-01
-4.3172851205e-01 -2.4107421935e-01 -1.3012786210e-01
-4.3320310116e-01 -2.3843748868e-01 -1.3012775779e-01
-4.3464842439e-01 -2.3576171696e-01 -1.3012765348e-01
-4.3750974536e-01 -2.3041014373e-01 -1.3012745976e-01
-4.4031250477e-01 -2.2501952946e-01 -1.3012729585e-01
-4.4303709269e-01 -2.1960936487e-01 -1.3012714684e-01
-4.4829100370e-01 -2.0867186785e-01 -1.3012689352e-01
-4.5082029700e-01 -2.0314452052e-01 -1.3012680411e-01
-4.5328125358e-01 -1.9759765267e-01 -1.3012671471e-01
-4.5448240638e-01 -1.9482421875e-01 -1.3012668490e-01
-4.5566403866e-01 -1.9203124940e-01 -1.3012665510e-01
-4.5683592558e-01 -1.8921874464e-01 -1.3012664020e-01
-4.5798826218e-01 -1.8642577529e-01 -1.3012661040e-01
-4.6134763956e-01 -1.7794921994e-01 -1.3012658060e-01
-4.6242186427e-01 -1.7511717975e-01 -1.3012658060e-01
-4.6349608898e-01 -1.7228515446e-01 -1.3012658060e-01
-4.6658203006e-01 -1.6373047233e-01 -1.3012661040e-01
-4.6757811308e-01 -1.6085937619e-01 -1.3012664020e-01
-4.7229489684e-01 -1.4644530416e-01 -1.3012681901e-01
-4.7318357229e-01 -1.4353515208e-01 -1.3012686372e-01
-4.7491210699e-01 -1.3771484792e-01 -1.3012698293e-01
-4.7657224536e-01 -1.3187499344e-01 -1.3012710214e-01
-4.7736325860e-01 -1.2896484137e-01 -1.3012717664e-01
-4.7891601920e-01 -1.2308593839e-01 -1.3012732565e-01
-4.7965818644e-01 -1.2015625089e-01 -1.3012741506e-01
-4.8039060831e-01 -1.1720702797e-01 -1.3012750447e-01
-4.8110350966e-01 -1.1425781250e-01 -1.3012759387e-01
-4.8312500119e-01 -1.0537108779e-01 -1.3012790680e-01
-4.8667967319e-01 -8.7519526482e-02 -1.3012863696e-01
-4.8771482706e-01 -8.1542968750e-02 -1.3012892008e-01
-4.8868164420e-01 -7.5546875596e-02 -1.3012921810e-01
-4.8914059997e-01 -7.2558589280e-02 -1.3012938201e-01
-4.8957028985e-01 -6.9550782442e-02 -1.3012954593e-01
-4.8999023438e-01 -6.6542968154e-02 -1.3012970984e-01
-4.9113279581e-01 -5.7519529015e-02 -1.3013023138e-01
-4.9180662632e-01 -5.1484372467e-02 -1.3013058901e-01
-4.9211913347e-01 -4.8476561904e-02 -1.3013078272e-01
-4.9267578125e-01 -4.2421873659e-02 -1.3013118505e-01
-4.9292966723e-01 -3.9394531399e-02 -1.3013139367e-01
-4.9357420206e-01 -3.0312499031e-02 -1.3013201952e-01
-4.9374997616e-01 -2.7285154909e-02 -1.3013225794e-01
-4.9435546994e-01 -1.2128906325e-02 -1.3013342023e-01
-4.9442380667e-01 -9.1015622020e-03 -1.3013367355e-01
-4.9447265267e-01 -6.0742185451e-03 -1.3013392687e-01
-4.6085935831e-01 -0.0000000000e+00 -1.3014210761e-01
-4.6084961295e-01 2.8320311103e-03 -1.3014236093e-01
-4.6078124642e-01 8.4765618667e-03 -1.3014286757e-01
-4.6054685116e-01 1.6972655430e-02 -1.3014364243e-01
-4.6031248569e-01 2.2617187351e-02 -1.3014419377e-01
-4.5982420444e-01 3.1093750149e-02 -1.3014504313e-01
-4.5940428972e-01 3.6718748510e-02 -1.3014562428e-01
-4.5892578363e-01 4.2363278568e-02 -1.3014622033e-01
-4.5865234733e-01 4.5175779611e-02 -1.3014653325e-01
-4.5806640387e-01 5.0800781697e-02 -1.3014714420e-01
-4.5741209388e-01 5.6425780058e-02 -1.3014778495e-01
-4.5629882812e-01 6.4824216068e-02 -1.3014876842e-01
-4.5589843392e-01 6.7636720836e-02 -1.3014911115e-01
-4.5502927899e-01 7.3222652078e-02 -1.3014978170e-01
-4.5310544968e-01 8.4355466068e-02 -1.3015119731e-01
-4.5204100013e-01 8.9921869338e-02 -1.3015191257e-01
-4.5148435235e-01 9.2695310712e-02 -1.3015228510e-01
-4.4969725609e-01 1.0097655654e-01 -1.3015340269e-01
-4.4708982110e-01 1.1199218780e-01 -1.3015495241e-01
-4.4639647007e-01 1.1472655833e-01 -1.3015535474e-01
-4.4568359852e-01 1.1748046428e-01 -1.3015575707e-01
-4.4496092200e-01 1.2019530684e-01 -1.3015614450e-01
-4.4345700741e-01 1.2566405535e-01 -1.3015697896e-01
-4.4188475609e-01 1.3109374046e-01 -1.3015779853e-01
-4.4107422233e-01 1.3380859792e-01 -1.3015821576e-01
-4.4024413824e-01 1.3650390506e-01 -1.3015864789e-01
-4.3853515387e-01 1.4189453423e-01 -1.3015949726e-01
-4.3765625358e-01 1.4458984137e-01 -1.3015992939e-01
-4.3585935235e-01 1.4994139969e-01 -1.3016080856e-01
-4.3302732706e-01 1.5794920921e-01 -1.3016213477e-01
-4.3004882336e-01 1.6589842737e-01 -1.3016352057e-01
-4.2693358660e-01 1.7378905416e-01 -1.3016490638e-01
-4.2585936189e-01 1.7638671398e-01 -1.3016536832e-01
-4.2366209626e-01 1.8160155416e-01 -1.3016632199e-01
-4.2253905535e-01 1.8419921398e-01 -1.3016679883e-01
-4.1908201575e-01 1.9195312262e-01 -1.3016825914e-01
-4.1547849774e-01 1.9964843988e-01 -1.3016974926e-01
-4.1424804926e-01 2.0218749344e-01 -1.3017025590e-01
-4.1299805045e-01 2.0472656190e-01 -1.3017076254e-01
-4.1045898199e-01 2.0978514850e-01 -1.3017177582e-01
-4.0916991234e-01 2.1228514612e-01 -1.3017228246e-01
-4.0785154700e-01 2.1480467916e-01 -1.3017280400e-01
-4.0519529581e-01 2.1978515387e-01 -1.3017384708e-01
-4.0383788943e-01 2.2228515148e-01 -1.3017436862e-01
-4.0247070789e-01 2.2474609315e-01 -1.3017489016e-01
-4.0108397603e-01 2.2722655535e-01 -1.3017542660e-01
-3.9968749881e-01 2.2966796160e-01 -1.3017594814e-01
-3.9827147126e-01 2.3212890327e-01 -1.3017648458e-01
-3.9683592319e-01 2.3457030952e-01 -1.3017702103e-01
