VERSION 0.7
FIELDS x y z
SIZE 4 4 4
TYPE F F F
COUNT 1 1 1
WIDTH 904
HEIGHT 1
VIEWPOINT 0.0 0.0 0.0 1.0 0.0 0.0 0.0
POINTS 904
DATA ascii
1.0552734137e-01 4.8380857706e-01 -1.3031312823e-01
1.0849609226e-01 4.8314452171e-01 -1.3031373918e-01
1.1145507544e-01 4.8248046637e-01 -1.3031436503e-01
1.2032226473e-01 4.8035153747e-01 -1.3031619787e-01
1.3208007812e-01 4.7726562619e-01 -1.3031861186e-01
1.3500976562e-01 4.7644528747e-01 -1.3031920791e-01
1.4374999702e-01 4.7388669848e-01 -1.3032098114e-01
1.4666014910e-01 4.7300779819e-01 -1.3032156229e-01
1.6397461295e-01 4.6728515625e-01 -1.3032501936e-01
1.6684569418e-01 4.6628904343e-01 -1.3032558560e-01
1.6969725490e-01 4.6525388956e-01 -1.3032613695e-01
1.7254883051e-01 4.6419921517e-01 -1.3032670319e-01
1.7540039122e-01 4.6314451098e-01 -1.3032726943e-01
1.8389648199e-01 4.5984372497e-01 -1.3032892346e-01
1.9233398139e-01 4.5638671517e-01 -1.3033054769e-01
1.9512695074e-01 4.5519530773e-01 -1.3033106923e-01
1.9791992009e-01 4.5398434997e-01 -1.3033160567e-01
2.0347656310e-01 4.5152342319e-01 -1.3033266366e-01
2.0624023676e-01 4.5027342439e-01 -1.3033317029e-01
2.0900389552e-01 4.4900390506e-01 -1.3033369184e-01
2.1996092796e-01 4.4374999404e-01 -1.3033573329e-01
2.2539061308e-01 4.4101560116e-01 -1.3033674657e-01
2.2809569538e-01 4.3962889910e-01 -1.3033723831e-01
2.3079101741e-01 4.3822264671e-01 -1.3033773005e-01
2.3347656429e-01 4.3679687381e-01 -1.3033822179e-01
2.4147459865e-01 4.3244138360e-01 -1.3033965230e-01
2.4413084984e-01 4.3093749881e-01 -1.3034012914e-01
2.4676756561e-01 4.2943358421e-01 -1.3034060597e-01
2.5463867188e-01 4.2482420802e-01 -1.3034200668e-01
2.6241210103e-01 4.2007812858e-01 -1.3034336269e-01
2.6499024034e-01 4.1845703125e-01 -1.3034380972e-01
2.7010741830e-01 4.1517576575e-01 -1.3034468889e-01
2.7770507336e-01 4.1013669968e-01 -1.3034598529e-01
2.8271484375e-01 4.0669921041e-01 -1.3034683466e-01
2.9261717200e-01 3.9964842796e-01 -1.3034847379e-01
2.9749998450e-01 3.9603513479e-01 -1.3034927845e-01
2.9993164539e-01 3.9419922233e-01 -1.3034966588e-01
3.0474609137e-01 3.9048826694e-01 -1.3035045564e-01
3.0713865161e-01 3.8861328363e-01 -1.3035082817e-01
3.0951172113e-01 3.8671875000e-01 -1.3035120070e-01
3.1188476086e-01 3.8482421637e-01 -1.3035158813e-01
3.1423828006e-01 3.8289061189e-01 -1.3035196066e-01
3.1658202410e-01 3.8095703721e-01 -1.3035231829e-01
3.1891602278e-01 3.7902343273e-01 -1.3035269082e-01
3.2124021649e-01 3.7705078721e-01 -1.3035304844e-01
3.2354491949e-01 3.7507811189e-01 -1.3035340607e-01
3.2812500000e-01 3.7107419968e-01 -1.3035409153e-01
3.3040037751e-01 3.6906248331e-01 -1.3035443425e-01
3.3490234613e-01 3.6498045921e-01 -1.3035511971e-01
3.3935546875e-01 3.6083984375e-01 -1.3035577536e-01
3.4594726562e-01 3.5453122854e-01 -1.3035672903e-01
3.4811523557e-01 3.5240232944e-01 -1.3035702705e-01
3.5027343035e-01 3.5027343035e-01 -1.3035733998e-01
3.5241210461e-01 3.4810546041e-01 -1.3035763800e-01
3.5454100370e-01 3.4593749046e-01 -1.3035793602e-01
3.5666015744e-01 3.4376952052e-01 -1.3035823405e-01
3.6704102159e-01 3.3267578483e-01 -1.3035963476e-01
3.7110349536e-01 3.2814452052e-01 -1.3036017120e-01
3.7708008289e-01 3.2124999166e-01 -1.3036093116e-01
3.8675779104e-01 3.0953124166e-01 -1.3036212325e-01
3.8865232468e-01 3.0716794729e-01 -1.3036236167e-01
3.9052733779e-01 3.0476561189e-01 -1.3036257029e-01
3.9607420564e-01 2.9753905535e-01 -1.3036321104e-01
3.9969724417e-01 2.9265624285e-01 -1.3036361337e-01
4.0326172113e-01 2.8773435950e-01 -1.3036400080e-01
4.0676757693e-01 2.8275391459e-01 -1.3036437333e-01
4.1190427542e-01 2.7521485090e-01 -1.3036487997e-01
4.1358396411e-01 2.7269530296e-01 -1.3036505878e-01
4.1690430045e-01 2.6759764552e-01 -1.3036535680e-01
4.2015624046e-01 2.6246091723e-01 -1.3036566973e-01
4.2175781727e-01 2.5988280773e-01 -1.3036580384e-01
4.2647460103e-01 2.5207030773e-01 -1.3036619127e-01
4.2800781131e-01 2.4945311248e-01 -1.3036632538e-01
4.2953124642e-01 2.4681639671e-01 -1.3036644459e-01
4.3252930045e-01 2.4152342975e-01 -1.3036666811e-01
4.3545898795e-01 2.3621092737e-01 -1.3036687672e-01
4.3690428138e-01 2.3353515565e-01 -1.3036696613e-01
4.3973630667e-01 2.2814452648e-01 -1.3036714494e-01
4.4113281369e-01 2.2544921935e-01 -1.3036723435e-01
4.4249999523e-01 2.2273437679e-01 -1.3036730886e-01
4.4385740161e-01 2.2001951933e-01 -1.3036738336e-01
4.4520506263e-01 2.1728515625e-01 -1.3036745787e-01
4.4653320312e-01 2.1455077827e-01 -1.3036751747e-01
4.5040038228e-01 2.0628905296e-01 -1.3036768138e-01
4.5166015625e-01 2.0353515446e-01 -1.3036774099e-01
4.5532226562e-01 1.9517578185e-01 -1.3036784530e-01
4.5651367307e-01 1.9238281250e-01 -1.3036787510e-01
4.5768553019e-01 1.8958984315e-01 -1.3036790490e-01
4.5883786678e-01 1.8677733839e-01 -1.3036791980e-01
4.5998045802e-01 1.8394531310e-01 -1.3036793470e-01
4.6219724417e-01 1.7830078304e-01 -1.3036794960e-01
4.6328124404e-01 1.7544920743e-01 -1.3036794960e-01
4.6540036798e-01 1.6974608600e-01 -1.3036794960e-01
4.6942383051e-01 1.5828125179e-01 -1.3036786020e-01
4.7039061785e-01 1.5539062023e-01 -1.3036784530e-01
4.7493162751e-01 1.4089843631e-01 -1.3036762178e-01
4.7579100728e-01 1.3798828423e-01 -1.3036756217e-01
4.7744140029e-01 1.3212890923e-01 -1.3036742806e-01
4.7825193405e-01 1.2919922173e-01 -1.3036735356e-01
4.7903320193e-01 1.2626953423e-01 -1.3036727905e-01
4.7979491949e-01 1.2332031131e-01 -1.3036720455e-01
4.8054686189e-01 1.2037108839e-01 -1.3036711514e-01
4.8126950860e-01 1.1742187291e-01 -1.3036702573e-01
4.8198240995e-01 1.1447264999e-01 -1.3036693633e-01
4.8464843631e-01 1.0259765387e-01 -1.3036651909e-01
4.8526367545e-01 9.9628902972e-02 -1.3036639988e-01
4.8645505309e-01 9.3671873212e-02 -1.3036614656e-01
4.8702147603e-01 9.0683594346e-02 -1.3036601245e-01
4.8809570074e-01 8.4687501192e-02 -1.3036574423e-01
4.8957028985e-01 7.5703121722e-02 -1.3036529720e-01
4.9001953006e-01 7.2695307434e-02 -1.3036513329e-01
4.9236327410e-01 5.4609373212e-02 -1.3036410511e-01
4.9379882216e-01 3.9472654462e-02 -1.3036312163e-01
4.9444335699e-01 3.0371092260e-02 -1.3036249578e-01
4.9503904581e-01 1.8242187798e-02 -1.3036157191e-01
4.9513670802e-01 1.5195311978e-02 -1.3036131859e-01
4.9528318644e-01 9.1210938990e-03 -1.3036082685e-01
4.9537107348e-01 -0.0000000000e+00 -1.3036006689e-01
4.9528318644e-01 -9.1210938990e-03 -1.3035926223e-01
4.9521481991e-01 -1.2148437090e-02 -1.3035897911e-01
4.9512693286e-01 -1.5195311978e-02 -1.3035869598e-01
4.9502930045e-01 -1.8222656101e-02 -1.3035841286e-01
4.9490234256e-01 -2.1269530058e-02 -1.3035811484e-01
4.9442380667e-01 -3.0371092260e-02 -1.3035722077e-01
4.9422851205e-01 -3.3398438245e-02 -1.3035690784e-01
4.9401366711e-01 -3.6445312202e-02 -1.3035659492e-01
4.9352538586e-01 -4.2500000447e-02 -1.3035595417e-01
4.9296873808e-01 -4.8554684967e-02 -1.3035531342e-01
4.9198240042e-01 -5.7617187500e-02 -1.3035430014e-01
4.9162107706e-01 -6.0624998063e-02 -1.3035395741e-01
4.9124023318e-01 -6.3652344048e-02 -1.3035361469e-01
4.9083983898e-01 -6.6660158336e-02 -1.3035325706e-01
4.8998045921e-01 -7.2675779462e-02 -1.3035252690e-01
4.8904296756e-01 -7.8691408038e-02 -1.3035181165e-01
4.8855468631e-01 -8.1679686904e-02 -1.3035143912e-01
4.8750975728e-01 -8.7675780058e-02 -1.3035067916e-01
4.8696288466e-01 -9.0664058924e-02 -1.3035029173e-01
4.8639646173e-01 -9.3652345240e-02 -1.3034990430e-01
4.8520505428e-01 -9.9609375000e-02 -1.3034911454e-01
4.8458984494e-01 -1.0257812589e-01 -1.3034871221e-01
4.8191404343e-01 -1.1445312202e-01 -1.3034707308e-01
4.7895506024e-01 -1.2623046339e-01 -1.3034537435e-01
4.7817382216e-01 -1.2917968631e-01 -1.3034495711e-01
4.7736325860e-01 -1.3210937381e-01 -1.3034451008e-01
4.7570312023e-01 -1.3794921339e-01 -1.3034363091e-01
4.7308593988e-01 -1.4667968452e-01 -1.3034227490e-01
4.7216796875e-01 -1.4958983660e-01 -1.3034181297e-01
4.6933591366e-01 -1.5824218094e-01 -1.3034042716e-01
4.6530273557e-01 -1.6970703006e-01 -1.3033850491e-01
4.6424803138e-01 -1.7255859077e-01 -1.3033801317e-01
4.6099609137e-01 -1.8107421696e-01 -1.3033653796e-01
4.5987305045e-01 -1.8390624225e-01 -1.3033603132e-01
4.5873045921e-01 -1.8671874702e-01 -1.3033553958e-01
4.5757812262e-01 -1.8953125179e-01 -1.3033501804e-01
4.5278319716e-01 -2.0070311427e-01 -1.3033296168e-01
4.5153319836e-01 -2.0347656310e-01 -1.3033244014e-01
4.4900390506e-01 -2.0900389552e-01 -1.3033138216e-01
4.4771483541e-01 -2.1175780892e-01 -1.3033086061e-01
4.4639647007e-01 -2.1449218690e-01 -1.3033030927e-01
4.4507810473e-01 -2.1722656488e-01 -1.3032977283e-01
4.4373047352e-01 -2.1994140744e-01 -1.3032923639e-01
4.3959960341e-01 -2.2808593512e-01 -1.3032758236e-01
4.3676757812e-01 -2.3345702887e-01 -1.3032647967e-01
4.3239256740e-01 -2.4144530296e-01 -1.3032479584e-01
4.2320311069e-01 -2.5718748569e-01 -1.3032132387e-01
4.2000976205e-01 -2.6236328483e-01 -1.3032016158e-01
4.1675779223e-01 -2.6749998331e-01 -1.3031896949e-01
4.1343748569e-01 -2.7259764075e-01 -1.3031777740e-01
4.1005858779e-01 -2.7763670683e-01 -1.3031655550e-01
4.0833982825e-01 -2.8015625477e-01 -1.3031594455e-01
4.0661132336e-01 -2.8265625238e-01 -1.3031533360e-01
4.0485349298e-01 -2.8513669968e-01 -1.3031472266e-01
4.0132811666e-01 -2.9007813334e-01 -1.3031350076e-01
3.9954102039e-01 -2.9253906012e-01 -1.3031287491e-01
3.9408200979e-01 -2.9984372854e-01 -1.3031099737e-01
3.9036130905e-01 -3.0464842916e-01 -1.3030973077e-01
3.8659179211e-01 -3.0941405892e-01 -1.3030846417e-01
3.8468748331e-01 -3.1177732348e-01 -1.3030782342e-01
3.8276365399e-01 -3.1414061785e-01 -1.3030718267e-01
3.8083007932e-01 -3.1646484137e-01 -1.3030654192e-01
3.7887695432e-01 -3.1880858541e-01 -1.3030588627e-01
3.7691405416e-01 -3.2111328840e-01 -1.3030524552e-01
3.7493163347e-01 -3.2341796160e-01 -1.3030458987e-01
3.7293943763e-01 -3.2572263479e-01 -1.3030393422e-01
3.7092772126e-01 -3.2798826694e-01 -1.3030327857e-01
3.6891600490e-01 -3.3027341962e-01 -1.3030262291e-01
3.6482420564e-01 -3.3476561308e-01 -1.3030129671e-01
3.6276367307e-01 -3.3699217439e-01 -1.3030064106e-01
3.5859373212e-01 -3.4142577648e-01 -1.3029931486e-01
3.5437500477e-01 -3.4578123689e-01 -1.3029795885e-01
3.5224607587e-01 -3.4794920683e-01 -1.3029728830e-01
3.5010740161e-01 -3.5011717677e-01 -1.3029661775e-01
3.4578123689e-01 -3.5437500477e-01 -1.3029526174e-01
3.4359374642e-01 -3.5648435354e-01 -1.3029457629e-01
3.3918944001e-01 -3.6066403985e-01 -1.3029322028e-01
3.3697265387e-01 -3.6275389791e-01 -1.3029251993e-01
3.3473631740e-01 -3.6480468512e-01 -1.3029183447e-01
3.3249023557e-01 -3.6685547233e-01 -1.3029114902e-01
3.3023437858e-01 -3.6888670921e-01 -1.3029046357e-01
3.2795897126e-01 -3.7089842558e-01 -1.3028977811e-01
3.2337889075e-01 -3.7488281727e-01 -1.3028837740e-01
3.2107421756e-01 -3.7687498331e-01 -1.3028767705e-01
3.1874999404e-01 -3.7882810831e-01 -1.3028699160e-01
3.1641599536e-01 -3.8078123331e-01 -1.3028627634e-01
3.1407225132e-01 -3.8271483779e-01 -1.3028559089e-01
3.1171873212e-01 -3.8462889194e-01 -1.3028487563e-01
3.0697265267e-01 -3.8841795921e-01 -1.3028346002e-01
3.0458006263e-01 -3.9029297233e-01 -1.3028275967e-01
3.0217772722e-01 -3.9214843512e-01 -1.3028205931e-01
2.9976561666e-01 -3.9400389791e-01 -1.3028134406e-01
2.9734373093e-01 -3.9582028985e-01 -1.3028062880e-01
2.8504881263e-01 -4.0474608541e-01 -1.3027705252e-01
2.8255859017e-01 -4.0648436546e-01 -1.3027633727e-01
2.8005859256e-01 -4.0820312500e-01 -1.3027562201e-01
2.7754881978e-01 -4.0992185473e-01 -1.3027489185e-01
2.6740235090e-01 -4.1660153866e-01 -1.3027200103e-01
2.6483398676e-01 -4.1822263598e-01 -1.3027128577e-01
2.6226562262e-01 -4.1984373331e-01 -1.3027055562e-01
2.5708982348e-01 -4.2302733660e-01 -1.3026909530e-01
2.4398437142e-01 -4.3070310354e-01 -1.3026544452e-01
2.4133788049e-01 -4.3218749762e-01 -1.3026471436e-01
2.3868162930e-01 -4.3365234137e-01 -1.3026398420e-01
2.3601561785e-01 -4.3511718512e-01 -1.3026325405e-01
2.2795897722e-01 -4.3937498331e-01 -1.3026104867e-01
2.2526367009e-01 -4.4076171517e-01 -1.3026031852e-01
2.2254882753e-01 -4.4212889671e-01 -1.3025957346e-01
2.1983398497e-01 -4.4349607825e-01 -1.3025882840e-01
2.1709960699e-01 -4.4482421875e-01 -1.3025809824e-01
2.1436522901e-01 -4.4615232944e-01 -1.3025735319e-01
2.0611327887e-01 -4.5001950860e-01 -1.3025514781e-01
2.0057617128e-01 -4.5249998569e-01 -1.3025365770e-01
1.9500976801e-01 -4.5492187142e-01 -1.3025218248e-01
1.9220702350e-01 -4.5611327887e-01 -1.3025143743e-01
1.8940429389e-01 -4.5728513598e-01 -1.3025069237e-01
1.8660156429e-01 -4.5843750238e-01 -1.3024996221e-01
1.8377929926e-01 -4.5957028866e-01 -1.3024921715e-01
1.8095703423e-01 -4.6068358421e-01 -1.3024848700e-01
1.7812499404e-01 -4.6177732944e-01 -1.3024774194e-01
1.7528319359e-01 -4.6287107468e-01 -1.3024699688e-01
1.6958984733e-01 -4.6498045325e-01 -1.3024552166e-01
1.6387695074e-01 -4.6701171994e-01 -1.3024404645e-01
1.6100585461e-01 -4.6800780296e-01 -1.3024330139e-01
1.5812499821e-01 -4.6898436546e-01 -1.3024257123e-01
1.4946289361e-01 -4.7181639075e-01 -1.3024033606e-01
1.4366210997e-01 -4.7359374166e-01 -1.3023886085e-01
1.4075194299e-01 -4.7447264194e-01 -1.3023811579e-01
1.3784179091e-01 -4.7533202171e-01 -1.3023738563e-01
1.3492187858e-01 -4.7615233064e-01 -1.3023665547e-01
1.3199219108e-01 -4.7697263956e-01 -1.3023591042e-01
1.2906250358e-01 -4.7777342796e-01 -1.3023518026e-01
1.2613281608e-01 -4.7855466604e-01 -1.3023443520e-01
1.2024413794e-01 -4.8005858064e-01 -1.3023297489e-01
1.0842773318e-01 -4.8285156488e-01 -1.3023003936e-01
1.0545898229e-01 -4.8351562023e-01 -1.3022929430e-01
1.0249023139e-01 -4.8414060473e-01 -1.3022856414e-01
9.6542969346e-02 -4.8535156250e-01 -1.3022710383e-01
8.7587885559e-02 -4.8705077171e-01 -1.3022492826e-01
7.2607420385e-02 -4.8949217796e-01 -1.3022129238e-01
6.6591791809e-02 -4.9033200741e-01 -1.3021984696e-01
6.3583984971e-02 -4.9074217677e-01 -1.3021911681e-01
5.1523435861e-02 -4.9214842916e-01 -1.3021625578e-01
4.8505857587e-02 -4.9244138598e-01 -1.3021554053e-01
3.9423827082e-02 -4.9324217439e-01 -1.3021339476e-01
3.6396484822e-02 -4.9347653985e-01 -1.3021269441e-01
3.3369138837e-02 -4.9369138479e-01 -1.3021199405e-01
2.7314452454e-02 -4.9404296279e-01 -1.3021057844e-01
1.5175781213e-02 -4.9457031488e-01 -1.3020776212e-01
6.0742185451e-03 -4.9474608898e-01 -1.3020566106e-01
3.0371092726e-03 -4.9478515983e-01 -1.3020497561e-01
0.0000000000e+00 -4.9478515983e-01 -1.3020429015e-01
-3.0371092726e-03 -4.9476560950e-01 -1.3020358980e-01
-1.2138671242e-02 -4.9462890625e-01 -1.3020153344e-01
-1.5175781213e-02 -4.9453124404e-01 -1.3020084798e-01
-3.0341796577e-02 -4.9382811785e-01 -1.3019745052e-01
-3.3369138837e-02 -4.9363279343e-01 -1.3019677997e-01
-3.6396484822e-02 -4.9341794848e-01 -1.3019610941e-01
-3.9423827082e-02 -4.9318358302e-01 -1.3019543886e-01
-4.2451169342e-02 -4.9292966723e-01 -1.3019476831e-01
-4.5468747616e-02 -4.9265623093e-01 -1.3019411266e-01
-4.8496093601e-02 -4.9236327410e-01 -1.3019344211e-01
-5.7548828423e-02 -4.9138671160e-01 -1.3019146025e-01
-6.0556638986e-02 -4.9101561308e-01 -1.3019080460e-01
-6.3574217260e-02 -4.9062499404e-01 -1.3019014895e-01
-6.9589845836e-02 -4.8980468512e-01 -1.3018885255e-01
-7.5595699251e-02 -4.8890623450e-01 -1.3018757105e-01
-8.4580078721e-02 -4.8742187023e-01 -1.3018563390e-01
-8.7568357587e-02 -4.8689451814e-01 -1.3018500805e-01
-9.0546876192e-02 -4.8634764552e-01 -1.3018436730e-01
-9.9482417107e-02 -4.8458984494e-01 -1.3018248975e-01
-1.0838866979e-01 -4.8267576098e-01 -1.3018062711e-01
-1.1134765297e-01 -4.8199218512e-01 -1.3018001616e-01
-1.1429687589e-01 -4.8130857944e-01 -1.3017940521e-01
-1.2019530684e-01 -4.7986325622e-01 -1.3017818332e-01
-1.2313476205e-01 -4.7912108898e-01 -1.3017757237e-01
-1.2607420981e-01 -4.7833982110e-01 -1.3017697632e-01
-1.3193358481e-01 -4.7675779462e-01 -1.3017578423e-01
-1.3485351205e-01 -4.7593748569e-01 -1.3017517328e-01
-1.3777343929e-01 -4.7509765625e-01 -1.3017459214e-01
-1.4649413526e-01 -4.7248044610e-01 -1.3017281890e-01
-1.5227538347e-01 -4.7064453363e-01 -1.3017167151e-01
-1.6377928853e-01 -4.6675780416e-01 -1.3016937673e-01
-1.6664062440e-01 -4.6574217081e-01 -1.3016881049e-01
-1.7801757157e-01 -4.6150389314e-01 -1.3016659021e-01
-1.8928711116e-01 -4.5699217916e-01 -1.3016441464e-01
-1.9208984077e-01 -4.5582029223e-01 -1.3016387820e-01
-1.9766600430e-01 -4.5341795683e-01 -1.3016282022e-01
-2.0321288705e-01 -4.5095703006e-01 -1.3016176224e-01
-2.0873045921e-01 -4.4841796160e-01 -1.3016073406e-01
-2.1147459745e-01 -4.4712889194e-01 -1.3016021252e-01
-2.1420897543e-01 -4.4582030177e-01 -1.3015970588e-01
-2.2238281369e-01 -4.4179686904e-01 -1.3015818596e-01
-2.2778320312e-01 -4.3904295564e-01 -1.3015718758e-01
-2.3046875000e-01 -4.3763670325e-01 -1.3015671074e-01
-2.3582030833e-01 -4.3476560712e-01 -1.3015572727e-01
-2.3848631978e-01 -4.3330076337e-01 -1.3015525043e-01
-2.4377928674e-01 -4.3035155535e-01 -1.3015429676e-01
-2.5166013837e-01 -4.2578125000e-01 -1.3015289605e-01
-2.5945311785e-01 -4.2107421160e-01 -1.3015154004e-01
-2.6203125715e-01 -4.1947263479e-01 -1.3015109301e-01
-2.6715821028e-01 -4.1623046994e-01 -1.3015019894e-01
-2.7223631740e-01 -4.1291013360e-01 -1.3014931977e-01
-2.7728515863e-01 -4.0953123569e-01 -1.3014847040e-01
-2.8971678019e-01 -4.0082031488e-01 -1.3014639914e-01
-2.9460936785e-01 -3.9724609256e-01 -1.3014557958e-01
-2.9945310950e-01 -3.9359372854e-01 -1.3014480472e-01
-3.0426758528e-01 -3.8988280296e-01 -1.3014401495e-01
-3.0902343988e-01 -3.8613280654e-01 -1.3014326990e-01
-3.1374022365e-01 -3.8230466843e-01 -1.3014252484e-01
-3.2531249523e-01 -3.7250000238e-01 -1.3014073670e-01
-3.2758787274e-01 -3.7048828602e-01 -1.3014039397e-01
-3.3210936189e-01 -3.6644530296e-01 -1.3013970852e-01
-3.3434569836e-01 -3.6439451575e-01 -1.3013938069e-01
-3.3658203483e-01 -3.6232420802e-01 -1.3013903797e-01
-3.4099608660e-01 -3.5816404223e-01 -1.3013839722e-01
-3.4319335222e-01 -3.5607421398e-01 -1.3013808429e-01
-3.4536132216e-01 -3.5396483541e-01 -1.3013777137e-01
-3.4967771173e-01 -3.4968748689e-01 -1.3013716042e-01
-3.5394531488e-01 -3.4537109733e-01 -1.3013654947e-01
-3.5605469346e-01 -3.4320312738e-01 -1.3013626635e-01
-3.5815429688e-01 -3.4099608660e-01 -1.3013596833e-01
-3.6024412513e-01 -3.3880859613e-01 -1.3013568521e-01
-3.7445312738e-01 -3.2298827171e-01 -1.3013382256e-01
-3.7838867307e-01 -3.1837889552e-01 -1.3013331592e-01
-3.8033202291e-01 -3.1605467200e-01 -1.3013307750e-01
-3.8226562738e-01 -3.1371092796e-01 -1.3013283908e-01
-3.8417968154e-01 -3.1134766340e-01 -1.3013261557e-01
-3.8608399034e-01 -3.0898436904e-01 -1.3013239205e-01
-3.8984373212e-01 -3.0423825979e-01 -1.3013194501e-01
-3.9354491234e-01 -2.9941406846e-01 -1.3013151288e-01
-3.9718750119e-01 -2.9457029700e-01 -1.3013109565e-01
-3.9898437262e-01 -2.9212889075e-01 -1.3013090193e-01
-4.0077146888e-01 -2.8966796398e-01 -1.3013070822e-01
-4.0253904462e-01 -2.8720703721e-01 -1.3013051450e-01
-4.0429687500e-01 -2.8472656012e-01 -1.3013033569e-01
-4.0602537990e-01 -2.8224608302e-01 -1.3013015687e-01
-4.0774413943e-01 -2.7974608541e-01 -1.3012997806e-01
-4.0945312381e-01 -2.7724608779e-01 -1.3012979925e-01
-4.1115233302e-01 -2.7472656965e-01 -1.3012963533e-01
-4.1283202171e-01 -2.7218750119e-01 -1.3012947142e-01
-4.1449218988e-01 -2.6964843273e-01 -1.3012932241e-01
-4.1613280773e-01 -2.6710936427e-01 -1.3012915850e-01
-4.2256835103e-01 -2.5681638718e-01 -1.3012857735e-01
-4.2413085699e-01 -2.5421875715e-01 -1.3012845814e-01
-4.2721679807e-01 -2.4898436666e-01 -1.3012820482e-01
-4.3024411798e-01 -2.4373047054e-01 -1.3012796640e-01
-4.3172851205e-01 -2.4107421935e-01 -1.3012786210e-01
-4.3320310116e-01 -2.3843748868e-01 -1.3012775779e-01
-4.3891599774e-01 -2.2773437202e-01 -1.3012738526e-01
-4.4031250477e-01 -2.2501952946e-01 -1.3012729585e-01
-4.4167968631e-01 -2.2232420743e-01 -1.3012722135e-01
-4.4437497854e-01 -2.1689452231e-01 -1.3012707233e-01
-4.4569334388e-01 -2.1416014433e-01 -1.3012701273e-01
-4.4829100370e-01 -2.0867186785e-01 -1.3012689352e-01
-4.5205077529e-01 -2.0039062202e-01 -1.3012675941e-01
-4.5328125358e-01 -1.9759765267e-01 -1.3012671471e-01
-4.5448240638e-01 -1.9482421875e-01 -1.3012668490e-01
-4.5566403866e-01 -1.9203124940e-01 -1.3012665510e-01
-4.5683592558e-01 -1.8921874464e-01 -1.3012664020e-01
-4.5798826218e-01 -1.8642577529e-01 -1.3012661040e-01
-4.5912107825e-01 -1.8361327052e-01 -1.3012659550e-01
-4.6134763956e-01 -1.7794921994e-01 -1.3012658060e-01
-4.6242186427e-01 -1.7511717975e-01 -1.3012658060e-01
-4.6349608898e-01 -1.7228515446e-01 -1.3012658060e-01
-4.6454101801e-01 -1.6943359375e-01 -1.3012658060e-01
-4.6556639671e-01 -1.6658203304e-01 -1.3012661040e-01
-4.6757811308e-01 -1.6085937619e-01 -1.3012664020e-01
-4.6855467558e-01 -1.5798828006e-01 -1.3012667000e-01
-4.7138670087e-01 -1.4933593571e-01 -1.3012677431e-01
-4.7318357229e-01 -1.4353515208e-01 -1.3012686372e-01
-4.7491210699e-01 -1.3771484792e-01 -1.3012698293e-01
-4.7575193644e-01 -1.3480468094e-01 -1.3012704253e-01
-4.7657224536e-01 -1.3187499344e-01 -1.3012710214e-01
-4.7891601920e-01 -1.2308593839e-01 -1.3012732565e-01
-4.7965818644e-01 -1.2015625089e-01 -1.3012741506e-01
-4.8039060831e-01 -1.1720702797e-01 -1.3012750447e-01
-4.8179686069e-01 -1.1130858958e-01 -1.3012769818e-01
-4.8312500119e-01 -1.0537108779e-01 -1.3012790680e-01
-4.8375976086e-01 -1.0242187232e-01 -1.3012801111e-01
-4.8498046398e-01 -9.6464842558e-02 -1.3012824953e-01
-4.8613280058e-01 -9.0507812798e-02 -1.3012850285e-01
-4.8720702529e-01 -8.4531247616e-02 -1.3012878597e-01
-4.8771482706e-01 -8.1542968750e-02 -1.3012892008e-01
-4.8914059997e-01 -7.2558589280e-02 -1.3012938201e-01
-4.8999023438e-01 -6.6542968154e-02 -1.3012970984e-01
-4.9077147245e-01 -6.0527343303e-02 -1.3013005257e-01
-4.9148437381e-01 -5.4511718452e-02 -1.3013041019e-01
-4.9211913347e-01 -4.8476561904e-02 -1.3013078272e-01
-4.9240234494e-01 -4.5449215919e-02 -1.3013099134e-01
-4.9267578125e-01 -4.2421873659e-02 -1.3013118505e-01
-4.9292966723e-01 -3.9394531399e-02 -1.3013139367e-01
-4.9316406250e-01 -3.6367185414e-02 -1.3013158739e-01
-4.9337890744e-01 -3.3359374851e-02 -1.3013181090e-01
-4.9374997616e-01 -2.7285154909e-02 -1.3013225794e-01
-4.9390622973e-01 -2.4257812649e-02 -1.3013248146e-01
-4.9427732825e-01 -1.5175781213e-02 -1.3013318181e-01
-4.9442380667e-01 -9.1015622020e-03 -1.3013367355e-01
-4.9447265267e-01 -6.0742185451e-03 -1.3013392687e-01
-4.6085935831e-01 -0.0000000000e+00 -1.3014210761e-01
-4.6078124642e-01 8.4765618667e-03 -1.3014286757e-01
-4.6072265506e-01 1.1308593675e-02 -1.3014312088e-01
-4.6054685116e-01 1.6972655430e-02 -1.3014364243e-01
-4.6031248569e-01 2.2617187351e-02 -1.3014419377e-01
-4.6016600728e-01 2.5449218228e-02 -1.3014447689e-01
-4.5999997854e-01 2.8261717409e-02 -1.3014476001e-01
-4.5961913466e-01 3.3906247467e-02 -1.3014534116e-01
-4.5940428972e-01 3.6718748510e-02 -1.3014562428e-01
-4.5916992426e-01 3.9550781250e-02 -1.3014592230e-01
-4.5892578363e-01 4.2363278568e-02 -1.3014622033e-01
-4.5865234733e-01 4.5175779611e-02 -1.3014653325e-01
-4.5706054568e-01 5.9218749404e-02 -1.3014811277e-01
-4.5668944716e-01 6.2031250447e-02 -1.3014844060e-01
-4.5589843392e-01 6.7636720836e-02 -1.3014911115e-01
-4.5458006859e-01 7.6015621424e-02 -1.3015013933e-01
-4.5257812738e-01 8.7148435414e-02 -1.3015155494e-01
-4.5089843869e-01 9.5449216664e-02 -1.3015265763e-01
-4.5031249523e-01 9.8222650588e-02 -1.3015303016e-01
-4.4969725609e-01 1.0097655654e-01 -1.3015340269e-01
-4.4907224178e-01 1.0374999791e-01 -1.3015379012e-01
-4.4842773676e-01 1.0650390387e-01 -1.3015417755e-01
-4.4777342677e-01 1.0923828185e-01 -1.3015456498e-01
-4.4639647007e-01 1.1472655833e-01 -1.3015535474e-01
-4.4568359852e-01 1.1748046428e-01 -1.3015575707e-01
-4.4496092200e-01 1.2019530684e-01 -1.3015614450e-01
-4.4421875477e-01 1.2292968482e-01 -1.3015654683e-01
-4.4345700741e-01 1.2566405535e-01 -1.3015697896e-01
-4.4107422233e-01 1.3380859792e-01 -1.3015821576e-01
-4.3853515387e-01 1.4189453423e-01 -1.3015949726e-01
-4.3765625358e-01 1.4458984137e-01 -1.3015992939e-01
-4.3676757812e-01 1.4726562798e-01 -1.3016036153e-01
-4.3585935235e-01 1.4994139969e-01 -1.3016080856e-01
-4.3493163586e-01 1.5261718631e-01 -1.3016124070e-01
-4.3302732706e-01 1.5794920921e-01 -1.3016213477e-01
-4.3105468154e-01 1.6324219108e-01 -1.3016304374e-01
-4.2693358660e-01 1.7378905416e-01 -1.3016490638e-01
-4.2585936189e-01 1.7638671398e-01 -1.3016536832e-01
-4.2140623927e-01 1.8679687381e-01 -1.3016729057e-01
-4.2025390267e-01 1.8937499821e-01 -1.3016778231e-01
-4.1908201575e-01 1.9195312262e-01 -1.3016825914e-01
-4.1669920087e-01 1.9708983600e-01 -1.3016925752e-01
-4.1547849774e-01 1.9964843988e-01 -1.3016974926e-01
-4.1299805045e-01 2.0472656190e-01 -1.3017076254e-01
-4.0916991234e-01 2.1228514612e-01 -1.3017228246e-01
-4.0653318167e-01 2.1730467677e-01 -1.3017331064e-01
-4.0519529581e-01 2.1978515387e-01 -1.3017384708e-01
-4.0383788943e-01 2.2228515148e-01 -1.3017436862e-01
-3.9683592319e-01 2.3457030952e-01 -1.3017702103e-01
-3.9539062977e-01 2.3699218035e-01 -1.3017757237e-01
-3.8946288824e-01 2.4664062262e-01 -1.3017974794e-01
-3.8486328721e-01 2.5376951694e-01 -1.3018141687e-01
-3.8330078125e-01 2.5611326098e-01 -1.3018198311e-01
-3.8013669848e-01 2.6080077887e-01 -1.3018311560e-01
-3.7852537632e-01 2.6314452291e-01 -1.3018368185e-01
-3.7690427899e-01 2.6544922590e-01 -1.3018424809e-01
-3.7362304330e-01 2.7005860209e-01 -1.3018539548e-01
-3.6169922352e-01 2.8583982587e-01 -1.3018947840e-01
-3.5994139314e-01 2.8806638718e-01 -1.3019007444e-01
-3.5276365280e-01 2.9681640863e-01 -1.3019247353e-01
-3.4910154343e-01 3.0113279819e-01 -1.3019368052e-01
-3.4538084269e-01 3.0539062619e-01 -1.3019488752e-01
-3.3585935831e-01 3.1583982706e-01 -1.3019797206e-01
-3.3391600847e-01 3.1791013479e-01 -1.3019858301e-01
-3.2999023795e-01 3.2197263837e-01 -1.3019983470e-01
-3.2801756263e-01 3.2400390506e-01 -1.3020047545e-01
-3.1997069716e-01 3.3195310831e-01 -1.3020299375e-01
-3.1792968512e-01 3.3392578363e-01 -1.3020361960e-01
-3.1380859017e-01 3.3779296279e-01 -1.3020490110e-01
-3.0963867903e-01 3.4162110090e-01 -1.3020618260e-01
-3.0753904581e-01 3.4351560473e-01 -1.3020682335e-01
-3.0117186904e-01 3.4912109375e-01 -1.3020876050e-01
-2.9469725490e-01 3.5462889075e-01 -1.3021071255e-01
-2.9032227397e-01 3.5822263360e-01 -1.3021202385e-01
-2.8812500834e-01 3.5998046398e-01 -1.3021267951e-01
-2.8590819240e-01 3.6175781488e-01 -1.3021333516e-01
-2.8369140625e-01 3.6349609494e-01 -1.3021399081e-01
-2.8145506978e-01 3.6523437500e-01 -1.3021464646e-01
-2.7695313096e-01 3.6867186427e-01 -1.3021597266e-01
-2.7468749881e-01 3.7037107348e-01 -1.3021664321e-01
-2.7241209149e-01 3.7205076218e-01 -1.3021729887e-01
-2.7012693882e-01 3.7371093035e-01 -1.3021796942e-01
-2.6782226562e-01 3.7535154819e-01 -1.3021863997e-01
-2.5854492188e-01 3.8183593750e-01 -1.3022132218e-01
-2.5619140267e-01 3.8341796398e-01 -1.3022197783e-01
-2.5383788347e-01 3.8498046994e-01 -1.3022266328e-01
-2.4910156429e-01 3.8806641102e-01 -1.3022400439e-01
-2.4431639910e-01 3.9109373093e-01 -1.3022536039e-01
-2.4191406369e-01 3.9259764552e-01 -1.3022603095e-01
-2.3950195312e-01 3.9406248927e-01 -1.3022671640e-01
-2.3221679032e-01 3.9841794968e-01 -1.3022874296e-01
-2.2976562381e-01 3.9984375238e-01 -1.3022942841e-01
-2.2730468214e-01 4.0125000477e-01 -1.3023011386e-01
-2.2237303853e-01 4.0400388837e-01 -1.3023146987e-01
-2.1988280118e-01 4.0537106991e-01 -1.3023215532e-01
-2.1739257872e-01 4.0671873093e-01 -1.3023284078e-01
-2.1489256620e-01 4.0804687142e-01 -1.3023352623e-01
-2.0735351741e-01 4.1193357110e-01 -1.3023558259e-01
-1.9206054509e-01 4.1929686069e-01 -1.3023971021e-01
-1.8690429628e-01 4.2162108421e-01 -1.3024108112e-01
-1.7650389671e-01 4.2609372735e-01 -1.3024383783e-01
-1.7388671637e-01 4.2716795206e-01 -1.3024453819e-01
-1.7125976086e-01 4.2824217677e-01 -1.3024522364e-01
-1.6599608958e-01 4.3031248450e-01 -1.3024660945e-01
-1.5804687142e-01 4.3330076337e-01 -1.3024868071e-01
-1.5271483362e-01 4.3521484733e-01 -1.3025006652e-01
-1.4468750358e-01 4.3794921041e-01 -1.3025212288e-01
-1.3929687440e-01 4.3970701098e-01 -1.3025350869e-01
-1.2846679986e-01 4.4300779700e-01 -1.3025626540e-01
-1.2575195730e-01 4.4378906488e-01 -1.3025695086e-01
-1.2302733958e-01 4.4455078244e-01 -1.3025763631e-01
-1.1482421309e-01 4.4673827291e-01 -1.3025969267e-01
-1.0658203065e-01 4.4878906012e-01 -1.3026174903e-01
-1.0382812470e-01 4.4943359494e-01 -1.3026243448e-01
-1.0106445104e-01 4.5005857944e-01 -1.3026311994e-01
-9.8300777376e-02 4.5068359375e-01 -1.3026380539e-01
-8.9990235865e-02 4.5242187381e-01 -1.3026584685e-01
-8.1650391221e-02 4.5400390029e-01 -1.3026788831e-01
-7.8867182136e-02 4.5451170206e-01 -1.3026855886e-01
-7.3281250894e-02 4.5544919372e-01 -1.3026991487e-01
-7.0488281548e-02 4.5587888360e-01 -1.3027058542e-01
-6.4892575145e-02 4.5671874285e-01 -1.3027194142e-01
-6.2080077827e-02 4.5710936189e-01 -1.3027261198e-01
-5.9277340770e-02 4.5748046041e-01 -1.3027328253e-01
-5.3662106395e-02 4.5818358660e-01 -1.3027462363e-01
-4.5214843005e-02 4.5910155773e-01 -1.3027663529e-01
-4.2402341962e-02 4.5937499404e-01 -1.3027729094e-01
-3.3935546875e-02 4.6007812023e-01 -1.3027928770e-01
-3.1113279983e-02 4.6029296517e-01 -1.3027994335e-01
-2.2636719048e-02 4.6078124642e-01 -1.3028192520e-01
-1.4150390401e-02 4.6113279462e-01 -1.3028389215e-01
-1.1318359524e-02 4.6121093631e-01 -1.3028453290e-01
-5.6640622206e-03 4.6132811904e-01 -1.3028584421e-01
-2.8320311103e-03 4.6134763956e-01 -1.3028648496e-01
2.8320311103e-03 4.6134763956e-01 -1.3028778136e-01
5.6640622206e-03 4.6132811904e-01 -1.3028842211e-01
8.4960935637e-03 4.6128904819e-01 -1.3028906286e-01
1.4150390401e-02 4.6115234494e-01 -1.3029032946e-01
1.6982421279e-02 4.6105468273e-01 -1.3029097021e-01
2.5468749925e-02 4.6068358421e-01 -1.3029287755e-01
2.8291014954e-02 4.6050781012e-01 -1.3029350340e-01
3.3945310861e-02 4.6013671160e-01 -1.3029475510e-01
4.2412109673e-02 4.5945310593e-01 -1.3029663265e-01
4.5224606991e-02 4.5917966962e-01 -1.3029724360e-01
4.8037108034e-02 4.5888671279e-01 -1.3029786944e-01
5.0859373063e-02 4.5859372616e-01 -1.3029848039e-01
5.3671874106e-02 4.5828124881e-01 -1.3029909134e-01
5.6484375149e-02 4.5792967081e-01 -1.3029970229e-01
5.9287108481e-02 4.5757812262e-01 -1.3030031323e-01
6.4902342856e-02 4.5683592558e-01 -1.3030153513e-01
6.7705079913e-02 4.5642575622e-01 -1.3030213118e-01
7.0507809520e-02 4.5599609613e-01 -1.3030274212e-01
7.3300778866e-02 4.5556640625e-01 -1.3030333817e-01
7.6093748212e-02 4.5509764552e-01 -1.3030393422e-01
7.8886717558e-02 4.5462888479e-01 -1.3030453026e-01
9.0019531548e-02 4.5255857706e-01 -1.3030688465e-01
9.2802733183e-02 4.5201170444e-01 -1.3030746579e-01
9.5566406846e-02 4.5142576098e-01 -1.3030804694e-01
9.8339840770e-02 4.5083984733e-01 -1.3030862808e-01
1.0110351443e-01 4.5023435354e-01 -1.3030920923e-01
1.0386718810e-01 4.4960936904e-01 -1.3030979037e-01
1.0937500000e-01 4.4830077887e-01 -1.3031093776e-01
1.1212890595e-01 4.4761717319e-01 -1.3031148911e-01
1.1760742217e-01 4.4621092081e-01 -1.3031262159e-01
1.2307617068e-01 4.4474607706e-01 -1.3031373918e-01
1.2852539122e-01 4.4320312142e-01 -1.3031485677e-01
1.3395507634e-01 4.4160154462e-01 -1.3031594455e-01
1.3666991889e-01 4.4076171517e-01 -1.3031649590e-01
1.3936522603e-01 4.3992185593e-01 -1.3031703234e-01
1.4475585520e-01 4.3818357587e-01 -1.3031812012e-01
1.4744140208e-01 4.3728515506e-01 -1.3031864166e-01
1.5012694895e-01 4.3638670444e-01 -1.3031917810e-01
1.5280273557e-01 4.3544921279e-01 -1.3031971455e-01
1.6079100966e-01 4.3257811666e-01 -1.3032129407e-01
1.6873046756e-01 4.2955076694e-01 -1.3032282889e-01
1.7399413884e-01 4.2744138837e-01 -1.3032384217e-01
1.7921873927e-01 4.2527341843e-01 -1.3032485545e-01
1.8182617426e-01 4.2417967319e-01 -1.3032534719e-01
1.8443359435e-01 4.2304685712e-01 -1.3032585382e-01
1.8960936368e-01 4.2076170444e-01 -1.3032683730e-01
1.9475585222e-01 4.1839843988e-01 -1.3032779098e-01
1.9988280535e-01 4.1597655416e-01 -1.3032875955e-01
2.1254882216e-01 4.0966796875e-01 -1.3033109903e-01
2.1505859494e-01 4.0835937858e-01 -1.3033154607e-01
2.1756835282e-01 4.0703123808e-01 -1.3033200800e-01
2.2005859017e-01 4.0568357706e-01 -1.3033246994e-01
2.2501952946e-01 4.0296873450e-01 -1.3033336401e-01
2.2749023139e-01 4.0158203244e-01 -1.3033379614e-01
2.4211913347e-01 3.9292967319e-01 -1.3033638895e-01
2.4453124404e-01 3.9144530892e-01 -1.3033680618e-01
2.4931639433e-01 3.8841795921e-01 -1.3033764064e-01
2.5407224894e-01 3.8533201814e-01 -1.3033846021e-01
2.5877928734e-01 3.8218748569e-01 -1.3033924997e-01
2.6112303138e-01 3.8058593869e-01 -1.3033965230e-01
2.6344725490e-01 3.7898436189e-01 -1.3034003973e-01
2.7038085461e-01 3.7408202887e-01 -1.3034118712e-01
2.7948242426e-01 3.6732420325e-01 -1.3034267724e-01
2.8173828125e-01 3.6560547352e-01 -1.3034304976e-01
2.8397461772e-01 3.6386719346e-01 -1.3034340739e-01
2.9282227159e-01 3.5679686069e-01 -1.3034480810e-01
2.9500976205e-01 3.5499998927e-01 -1.3034515083e-01
2.9934570193e-01 3.5134765506e-01 -1.3034582138e-01
3.0576172471e-01 3.4578123689e-01 -1.3034680486e-01
3.0788084865e-01 3.4390625358e-01 -1.3034711778e-01
3.1208008528e-01 3.4009763598e-01 -1.3034775853e-01
3.1416013837e-01 3.3818358183e-01 -1.3034805655e-01
3.1623047590e-01 3.3625000715e-01 -1.3034836948e-01
3.2236328721e-01 3.3037108183e-01 -1.3034924865e-01
3.3235350251e-01 3.2033202052e-01 -1.3035066426e-01
3.3625975251e-01 3.1623047590e-01 -1.3035120070e-01
3.4202146530e-01 3.1000000238e-01 -1.3035197556e-01
3.4392577410e-01 3.0789062381e-01 -1.3035222888e-01
3.4581053257e-01 3.0576172471e-01 -1.3035246730e-01
3.4767577052e-01 3.0365234613e-01 -1.3035272062e-01
3.4953123331e-01 3.0150389671e-01 -1.3035295904e-01
3.5137695074e-01 2.9935544729e-01 -1.3035318255e-01
3.5862302780e-01 2.9064452648e-01 -1.3035407662e-01
3.6564451456e-01 2.8175780177e-01 -1.3035491109e-01
3.6737304926e-01 2.7951171994e-01 -1.3035510480e-01
3.6908203363e-01 2.7724608779e-01 -1.3035529852e-01
3.7077146769e-01 2.7498045564e-01 -1.3035549223e-01
3.7245115638e-01 2.7269530296e-01 -1.3035568595e-01
3.7412109971e-01 2.7041015029e-01 -1.3035584986e-01
3.7577146292e-01 2.6810547709e-01 -1.3035602868e-01
3.7741211057e-01 2.6580077410e-01 -1.3035620749e-01
3.8064453006e-01 2.6115232706e-01 -1.3035653532e-01
3.8224607706e-01 2.5880858302e-01 -1.3035669923e-01
3.8694334030e-01 2.5173828006e-01 -1.3035716116e-01
3.9151367545e-01 2.4457029998e-01 -1.3035757840e-01
3.9300781488e-01 2.4216796458e-01 -1.3035771251e-01
3.9448240399e-01 2.3974609375e-01 -1.3035784662e-01
3.9594724774e-01 2.3732420802e-01 -1.3035796583e-01
3.9740234613e-01 2.3488280177e-01 -1.3035808504e-01
3.9883789420e-01 2.3244139552e-01 -1.3035820425e-01
4.0442383289e-01 2.2257812321e-01 -1.3035862148e-01
4.0844726562e-01 2.1509765089e-01 -1.3035888970e-01
4.0976560116e-01 2.1259765327e-01 -1.3035896420e-01
4.1106444597e-01 2.1007812023e-01 -1.3035903871e-01
4.1234374046e-01 2.0755858719e-01 -1.3035912812e-01
4.1485351324e-01 2.0248046517e-01 -1.3035926223e-01
4.1609373689e-01 1.9992187619e-01 -1.3035930693e-01
4.1968747973e-01 1.9222655892e-01 -1.3035947084e-01
4.2202147841e-01 1.8707031012e-01 -1.3035956025e-01
4.2316403985e-01 1.8447265029e-01 -1.3035959005e-01
4.2539060116e-01 1.7927734554e-01 -1.3035964966e-01
4.2648437619e-01 1.7666015029e-01 -1.3035966456e-01
4.2755857110e-01 1.7404296994e-01 -1.3035967946e-01
4.2862305045e-01 1.7140623927e-01 -1.3035970926e-01
4.2966794968e-01 1.6876952350e-01 -1.3035970926e-01
4.3069335818e-01 1.6613280773e-01 -1.3035972416e-01
4.3169921637e-01 1.6349609196e-01 -1.3035972416e-01
4.3269529939e-01 1.6083984077e-01 -1.3035970926e-01
4.3463864923e-01 1.5552733839e-01 -1.3035969436e-01
4.3651366234e-01 1.5017578006e-01 -1.3035966456e-01
4.3743163347e-01 1.4749999344e-01 -1.3035963476e-01
4.3920898438e-01 1.4210937917e-01 -1.3035957515e-01
4.4006836414e-01 1.3941405714e-01 -1.3035954535e-01
4.4255858660e-01 1.3128906488e-01 -1.3035939634e-01
4.4335937500e-01 1.2857422233e-01 -1.3035935163e-01
4.4637694955e-01 1.1765624583e-01 -1.3035909832e-01
4.4779294729e-01 1.1216796935e-01 -1.3035893440e-01
4.4846677780e-01 1.0941406339e-01 -1.3035885990e-01
4.5040038228e-01 1.0115233809e-01 -1.3035857677e-01
4.5101562142e-01 9.8378904164e-02 -1.3035847247e-01
4.5329099894e-01 8.7285153568e-02 -1.3035804033e-01
4.5381835103e-01 8.4492184222e-02 -1.3035790622e-01
4.5482420921e-01 7.8925780952e-02 -1.3035766780e-01
4.5529296994e-01 7.6132811606e-02 -1.3035753369e-01
4.5575195551e-01 7.3339842260e-02 -1.3035738468e-01
4.5619139075e-01 7.0527344942e-02 -1.3035725057e-01
4.5662108064e-01 6.7734375596e-02 -1.3035710156e-01
4.5741209388e-01 6.2128905207e-02 -1.3035678864e-01
4.5779296756e-01 5.9316404164e-02 -1.3035663962e-01
4.5814451575e-01 5.6503906846e-02 -1.3035647571e-01
4.5847654343e-01 5.3691405803e-02 -1.3035631180e-01
4.5879882574e-01 5.0878904760e-02 -1.3035613298e-01
4.5939451456e-01 4.5253906399e-02 -1.3035579026e-01
4.5965820551e-01 4.2421873659e-02 -1.3035559654e-01
4.5991209149e-01 3.9609372616e-02 -1.3035541773e-01
4.6036133170e-01 3.3964842558e-02 -1.3035503030e-01
4.6055662632e-01 3.1132811680e-02 -1.3035483658e-01
4.6074217558e-01 2.8300780803e-02 -1.3035462797e-01
4.6090820432e-01 2.5488279760e-02 -1.3035441935e-01
4.6118164062e-01 1.9824218005e-02 -1.3035398722e-01
4.6128904819e-01 1.6992187127e-02 -1.3035377860e-01
4.6138671041e-01 1.4160156250e-02 -1.3035354018e-01
4.6146482229e-01 1.1328124441e-02 -1.3035331666e-01
4.6156248450e-01 5.6640622206e-03 -1.3035283983e-01
4.6156248450e-01 -5.6640622206e-03 -1.3035187125e-01
4.6152341366e-01 -8.4960935637e-03 -1.3035161793e-01
4.6137693524e-01 -1.4160156250e-02 -1.3035109639e-01
4.6127927303e-01 -1.6992187127e-02 -1.3035082817e-01
4.6103513241e-01 -2.2656248882e-02 -1.3035027683e-01
4.6088865399e-01 -2.5468749925e-02 -1.3034999371e-01
4.6034178138e-01 -3.3964842558e-02 -1.3034914434e-01
4.6011719108e-01 -3.6777343601e-02 -1.3034884632e-01
4.5876953006e-01 -5.0878904760e-02 -1.3034731150e-01
4.5738279819e-01 -6.2109373510e-02 -1.3034601510e-01
4.5699217916e-01 -6.4921870828e-02 -1.3034568727e-01
4.5615231991e-01 -7.0527344942e-02 -1.3034500182e-01
4.5477539301e-01 -7.8906245530e-02 -1.3034397364e-01
4.5324218273e-01 -8.7265625596e-02 -1.3034290075e-01
4.5269531012e-01 -9.0039059520e-02 -1.3034254313e-01
4.5213866234e-01 -9.2832028866e-02 -1.3034217060e-01
4.5035156608e-01 -1.0113281012e-01 -1.3034103811e-01
4.4971677661e-01 -1.0388671607e-01 -1.3034066558e-01
4.4907224178e-01 -1.0664062202e-01 -1.3034026325e-01
4.4840818644e-01 -1.0939452797e-01 -1.3033987582e-01
4.4772461057e-01 -1.1214843392e-01 -1.3033948839e-01
4.4249022007e-01 -1.3126952946e-01 -1.3033662736e-01
4.3913084269e-01 -1.4208984375e-01 -1.3033492863e-01
4.3734374642e-01 -1.4746093750e-01 -1.3033406436e-01
4.3455076218e-01 -1.5548828244e-01 -1.3033272326e-01
4.2852538824e-01 -1.7136718333e-01 -1.3032998145e-01
4.2418944836e-01 -1.8183593452e-01 -1.3032807410e-01
4.2192381620e-01 -1.8703123927e-01 -1.3032712042e-01
4.1958984733e-01 -1.9218750298e-01 -1.3032613695e-01
4.1474607587e-01 -2.0242187381e-01 -1.3032415509e-01
4.1349607706e-01 -2.0496092737e-01 -1.3032364845e-01
4.1222655773e-01 -2.0749999583e-01 -1.3032312691e-01
4.1093748808e-01 -2.1001952887e-01 -1.3032262027e-01
4.0964841843e-01 -2.1253906190e-01 -1.3032211363e-01
4.0700194240e-01 -2.1753905714e-01 -1.3032107055e-01
4.0566405654e-01 -2.2003905475e-01 -1.3032054901e-01
4.0153318644e-01 -2.2746093571e-01 -1.3031896949e-01
4.0012693405e-01 -2.2992186248e-01 -1.3031843305e-01
3.9871093631e-01 -2.3238280416e-01 -1.3031789660e-01
3.9727538824e-01 -2.3480467498e-01 -1.3031736016e-01
3.9582028985e-01 -2.3724608123e-01 -1.3031682372e-01
3.9288085699e-01 -2.4208983779e-01 -1.3031573594e-01
3.8987302780e-01 -2.4689452350e-01 -1.3031461835e-01
3.8681641221e-01 -2.5164061785e-01 -1.3031351566e-01
3.7890625000e-01 -2.6339843869e-01 -1.3031069934e-01
3.7728515267e-01 -2.6570311189e-01 -1.3031011820e-01
3.6894530058e-01 -2.7714842558e-01 -1.3030722737e-01
3.6551755667e-01 -2.8166013956e-01 -1.3030606508e-01
3.6376953125e-01 -2.8388670087e-01 -1.3030546904e-01
3.6201170087e-01 -2.8611326218e-01 -1.3030487299e-01
3.6025390029e-01 -2.8833982348e-01 -1.3030429184e-01
3.5847654939e-01 -2.9052734375e-01 -1.3030368090e-01
3.5488280654e-01 -2.9490232468e-01 -1.3030248880e-01
3.5305663943e-01 -2.9707029462e-01 -1.3030189276e-01
3.5123047233e-01 -2.9923826456e-01 -1.3030128181e-01
3.4938475490e-01 -3.0138671398e-01 -1.3030067086e-01
3.4187498689e-01 -3.0986326933e-01 -1.3029822707e-01
3.3997070789e-01 -3.1195312738e-01 -1.3029761612e-01
3.3611327410e-01 -3.1609374285e-01 -1.3029637933e-01
3.3220702410e-01 -3.2019531727e-01 -1.3029512763e-01
3.2824218273e-01 -3.2425779104e-01 -1.3029387593e-01
3.2423827052e-01 -3.2824218273e-01 -1.3029260933e-01
3.2221677899e-01 -3.3023437858e-01 -1.3029198349e-01
3.1813475490e-01 -3.3416014910e-01 -1.3029071689e-01
3.1193357706e-01 -3.3996093273e-01 -1.3028879464e-01
3.0983397365e-01 -3.4185546637e-01 -1.3028815389e-01
3.0561521649e-01 -3.4562498331e-01 -1.3028685749e-01
3.0348631740e-01 -3.4749999642e-01 -1.3028621674e-01
3.0134764314e-01 -3.4935545921e-01 -1.3028556108e-01
2.9703125358e-01 -3.5302734375e-01 -1.3028426468e-01
2.9486328363e-01 -3.5484373569e-01 -1.3028362393e-01
2.9267576337e-01 -3.5664060712e-01 -1.3028296828e-01
2.9047849774e-01 -3.5841795802e-01 -1.3028229773e-01
2.8159180284e-01 -3.6542966962e-01 -1.3027967513e-01
2.7934569120e-01 -3.6714842916e-01 -1.3027901947e-01
2.7252930403e-01 -3.7222656608e-01 -1.3027702272e-01
2.6563474536e-01 -3.7716796994e-01 -1.3027501106e-01
2.6098632812e-01 -3.8041013479e-01 -1.3027368486e-01
2.5864258409e-01 -3.8199219108e-01 -1.3027299941e-01
2.5156250596e-01 -3.8667967916e-01 -1.3027098775e-01
2.4679687619e-01 -3.8974609971e-01 -1.3026963174e-01
2.4440428615e-01 -3.9124998450e-01 -1.3026896119e-01
2.4199217558e-01 -3.9273437858e-01 -1.3026829064e-01
2.3714843392e-01 -3.9566406608e-01 -1.3026691973e-01
2.3471678793e-01 -3.9710935950e-01 -1.3026624918e-01
2.3227538168e-01 -3.9855468273e-01 -1.3026556373e-01
2.2982421517e-01 -3.9996093512e-01 -1.3026487827e-01
2.2736327350e-01 -4.0136718750e-01 -1.3026420772e-01
2.2490233183e-01 -4.0275388956e-01 -1.3026352227e-01
2.1993163228e-01 -4.0546873212e-01 -1.3026215136e-01
2.1744139493e-01 -4.0681639314e-01 -1.3026146591e-01
2.1243163943e-01 -4.0945312381e-01 -1.3026009500e-01
2.0739257336e-01 -4.1203123331e-01 -1.3025872409e-01
2.0485350490e-01 -4.1328123212e-01 -1.3025803864e-01
2.0231445134e-01 -4.1453123093e-01 -1.3025735319e-01
1.9976562262e-01 -4.1576170921e-01 -1.3025665283e-01
1.9721679389e-01 -4.1697263718e-01 -1.3025596738e-01
1.9464842975e-01 -4.1818359494e-01 -1.3025528193e-01
1.9208008051e-01 -4.1935545206e-01 -1.3025459647e-01
1.7912109196e-01 -4.2503905296e-01 -1.3025115430e-01
1.7388671637e-01 -4.2720702291e-01 -1.3024976850e-01
1.7125976086e-01 -4.2826169729e-01 -1.3024908304e-01
1.6863280535e-01 -4.2929685116e-01 -1.3024839759e-01
1.6334959865e-01 -4.3134763837e-01 -1.3024701178e-01
1.6069336236e-01 -4.3232420087e-01 -1.3024632633e-01
1.5803711116e-01 -4.3330076337e-01 -1.3024564087e-01
1.5271483362e-01 -4.3521484733e-01 -1.3024425507e-01
1.5003906190e-01 -4.3613278866e-01 -1.3024356961e-01
1.4735351503e-01 -4.3705075979e-01 -1.3024286926e-01
1.3387694955e-01 -4.4134765863e-01 -1.3023942709e-01
1.3116210699e-01 -4.4216796756e-01 -1.3023874164e-01
1.2573242188e-01 -4.4373047352e-01 -1.3023737073e-01
1.2027343363e-01 -4.4523435831e-01 -1.3023599982e-01
1.1753906310e-01 -4.4595703483e-01 -1.3023529947e-01
1.1480468512e-01 -4.4667968154e-01 -1.3023461401e-01
1.1206054688e-01 -4.4736325741e-01 -1.3023392856e-01
1.0930664092e-01 -4.4804686308e-01 -1.3023324311e-01
1.0104492307e-01 -4.4998046756e-01 -1.3023120165e-01
9.8281249404e-02 -4.5058593154e-01 -1.3023051620e-01
9.5507808030e-02 -4.5117187500e-01 -1.3022983074e-01
9.2744141817e-02 -4.5175778866e-01 -1.3022916019e-01
8.9970700443e-02 -4.5230469108e-01 -1.3022847474e-01
8.4404297173e-02 -4.5337888598e-01 -1.3022710383e-01
8.1630855799e-02 -4.5388671756e-01 -1.3022643328e-01
7.0458985865e-02 -4.5574218035e-01 -1.3022373617e-01
6.7666016519e-02 -4.5615231991e-01 -1.3022305071e-01
6.2060546130e-02 -4.5695310831e-01 -1.3022170961e-01
5.9257812798e-02 -4.5732420683e-01 -1.3022102416e-01
4.5195311308e-02 -4.5890623331e-01 -1.3021768630e-01
4.2382810265e-02 -4.5917966962e-01 -1.3021703064e-01
3.9560545236e-02 -4.5943358541e-01 -1.3021636009e-01
3.3916015178e-02 -4.5988279581e-01 -1.3021503389e-01
3.1103514135e-02 -4.6007812023e-01 -1.3021437824e-01
2.8271483257e-02 -4.6025389433e-01 -1.3021372259e-01
2.5449218228e-02 -4.6041014791e-01 -1.3021305203e-01
1.4140624553e-02 -4.6089842916e-01 -1.3021044433e-01
1.1318359524e-02 -4.6095702052e-01 -1.3020978868e-01
8.4863277152e-03 -4.6101561189e-01 -1.3020914793e-01
2.8320311103e-03 -4.6109375358e-01 -1.3020785153e-01
-2.8320311103e-03 -4.6109375358e-01 -1.3020655513e-01
-8.4863277152e-03 -4.6101561189e-01 -1.3020527363e-01
-2.2626953200e-02 -4.6052733064e-01 -1.3020208478e-01
-2.5449218228e-02 -4.6037107706e-01 -1.3020145893e-01
-5.0820309669e-02 -4.5824217796e-01 -1.3019585609e-01
-5.6435544044e-02 -4.5757812262e-01 -1.3019464910e-01
-5.9248045087e-02 -4.5722654462e-01 -1.3019403815e-01
-6.4853511751e-02 -4.5646482706e-01 -1.3019281626e-01
-7.0449218154e-02 -4.5562499762e-01 -1.3019162416e-01
-7.6035156846e-02 -4.5472654700e-01 -1.3019043207e-01
-8.1601560116e-02 -4.5374998450e-01 -1.3018923998e-01
-8.9941404760e-02 -4.5216795802e-01 -1.3018748164e-01
-9.2714838684e-02 -4.5160156488e-01 -1.3018688560e-01
-9.5478512347e-02 -4.5103514194e-01 -1.3018631935e-01
-1.0100585967e-01 -4.4982421398e-01 -1.3018515706e-01
-1.0652343184e-01 -4.4853514433e-01 -1.3018400967e-01
-1.0926757753e-01 -4.4787108898e-01 -1.3018344343e-01
-1.1201171577e-01 -4.4718748331e-01 -1.3018287718e-01
-1.1475585401e-01 -4.4650390744e-01 -1.3018231094e-01
-1.1749023199e-01 -4.4578123093e-01 -1.3018174469e-01
-1.2022460997e-01 -4.4505858421e-01 -1.3018117845e-01
-1.3381835818e-01 -4.4115233421e-01 -1.3017843664e-01
-1.3652344048e-01 -4.4031250477e-01 -1.3017788529e-01
-1.3921874762e-01 -4.3947264552e-01 -1.3017734885e-01
-1.5529295802e-01 -4.3404296041e-01 -1.3017414510e-01
-1.6326171160e-01 -4.3109375238e-01 -1.3017259538e-01
-1.7378905416e-01 -4.2695310712e-01 -1.3017055392e-01
-1.7901366949e-01 -4.2478513718e-01 -1.3016955554e-01
-1.8161132932e-01 -4.2367187142e-01 -1.3016904891e-01
-1.8420897424e-01 -4.2255857587e-01 -1.3016855717e-01
-1.9452148676e-01 -4.1791015863e-01 -1.3016660511e-01
-2.0217773318e-01 -4.1423827410e-01 -1.3016518950e-01
-2.0471678674e-01 -4.1298827529e-01 -1.3016471267e-01
-2.0724609494e-01 -4.1173827648e-01 -1.3016423583e-01
-2.1227538586e-01 -4.0916013718e-01 -1.3016332686e-01
-2.1478515863e-01 -4.0785154700e-01 -1.3016286492e-01
-2.1728515625e-01 -4.0652343631e-01 -1.3016240299e-01
-2.3208983243e-01 -3.9824217558e-01 -1.3015975058e-01
-2.3453123868e-01 -3.9679685235e-01 -1.3015931845e-01
-2.3696288466e-01 -3.9535155892e-01 -1.3015888631e-01
-2.3938475549e-01 -3.9388671517e-01 -1.3015845418e-01
-2.4419921637e-01 -3.9091795683e-01 -1.3015761971e-01
-2.5134766102e-01 -3.8636717200e-01 -1.3015638292e-01
-2.5371092558e-01 -3.8480466604e-01 -1.3015599549e-01
-2.5606444478e-01 -3.8324218988e-01 -1.3015559316e-01
-2.5840818882e-01 -3.8166013360e-01 -1.3015519083e-01
-2.6307615638e-01 -3.7845700979e-01 -1.3015440106e-01
-2.6539060473e-01 -3.7683594227e-01 -1.3015401363e-01
-2.6769530773e-01 -3.7519529462e-01 -1.3015364110e-01
-2.7228516340e-01 -3.7189450860e-01 -1.3015286624e-01
-2.7682617307e-01 -3.6851561069e-01 -1.3015212119e-01
-2.8131836653e-01 -3.6507812142e-01 -1.3015140593e-01
-2.8355467319e-01 -3.6335936189e-01 -1.3015103340e-01
-2.8798827529e-01 -3.5984373093e-01 -1.3015033305e-01
-2.9019531608e-01 -3.5806640983e-01 -1.3014999032e-01
-2.9672852159e-01 -3.5265624523e-01 -1.3014896214e-01
-2.9888671637e-01 -3.5083982348e-01 -1.3014863431e-01
-3.0317381024e-01 -3.4714841843e-01 -1.3014797866e-01
-3.0741208792e-01 -3.4339842200e-01 -1.3014732301e-01
-3.1159180403e-01 -3.3958983421e-01 -1.3014671206e-01
