VERSION 0.7
FIELDS x y z
SIZE 4 4 4
TYPE F F F
COUNT 1 1 1
WIDTH 901
HEIGHT 1
VIEWPOINT 0.0 0.0 0.0 1.0 0.0 0.0 0.0
POINTS 901
DATA ascii
1.0136132240e+00 -2.8886327744e+00 -1.3022789359e-01
9.9583983421e-01 -2.8946874142e+00 -1.3022331893e-01
9.4228512049e-01 -2.9122264385e+00 -1.3020958006e-01
9.0641599894e-01 -2.9233593941e+00 -1.3020044565e-01
8.8842773438e-01 -2.9287693501e+00 -1.3019588590e-01
8.7041014433e-01 -2.9340624809e+00 -1.3019131124e-01
8.3428710699e-01 -2.9443163872e+00 -1.3018219173e-01
8.1617188454e-01 -2.9492771626e+00 -1.3017763197e-01
7.9803711176e-01 -2.9541211128e+00 -1.3017307222e-01
7.7986323833e-01 -2.9588670731e+00 -1.3016852736e-01
7.6166993380e-01 -2.9634959698e+00 -1.3016398251e-01
7.4344724417e-01 -2.9680078030e+00 -1.3015943766e-01
7.0692378283e-01 -2.9766991138e+00 -1.3015034795e-01
6.8861329556e-01 -2.9808788300e+00 -1.3014581800e-01
5.9675776958e-01 -3.0000779629e+00 -1.3012322783e-01
5.7831054926e-01 -3.0035545826e+00 -1.3011871278e-01
5.5985349417e-01 -3.0069530010e+00 -1.3011421263e-01
5.2287107706e-01 -3.0133788586e+00 -1.3010522723e-01
5.0435543060e-01 -3.0164451599e+00 -1.3010074198e-01
4.8582029343e-01 -3.0193748474e+00 -1.3009625673e-01
4.4870117307e-01 -3.0249023438e+00 -1.3008733094e-01
4.1152343154e-01 -3.0299608707e+00 -1.3007840514e-01
3.9291015267e-01 -3.0323436260e+00 -1.3007396460e-01
3.1833007932e-01 -3.0406639576e+00 -1.3005624712e-01
2.9965820909e-01 -3.0424413681e+00 -1.3005183637e-01
2.6228514314e-01 -3.0457031727e+00 -1.3004302979e-01
2.4358397722e-01 -3.0471289158e+00 -1.3003864884e-01
2.0615233481e-01 -3.0497069359e+00 -1.3002990186e-01
1.8743163347e-01 -3.0508008003e+00 -1.3002552092e-01
1.1249022931e-01 -3.0540819168e+00 -1.3000816107e-01
9.3750000000e-02 -3.0545897484e+00 -1.3000385463e-01
0.0000000000e+00 -3.0555467606e+00 -1.2998239696e-01
-1.8740233034e-02 -3.0553710461e+00 -1.2997813523e-01
-3.7490233779e-02 -3.0551171303e+00 -1.2997388840e-01
-7.4970699847e-02 -3.0542187691e+00 -1.2996542454e-01
-9.3710936606e-02 -3.0536131859e+00 -1.2996120751e-01
-1.1244140565e-01 -3.0528709888e+00 -1.2995700538e-01
-1.3117186725e-01 -3.0520312786e+00 -1.2995280325e-01
-1.4988280833e-01 -3.0510742664e+00 -1.2994861603e-01
-2.0599609613e-01 -3.0474998951e+00 -1.2993614376e-01
-2.2468750179e-01 -3.0460937023e+00 -1.2993200123e-01
-2.4336913228e-01 -3.0445506573e+00 -1.2992787361e-01
-2.9933592677e-01 -3.0392773151e+00 -1.2991558015e-01
-3.7378904223e-01 -3.0306053162e+00 -1.2989936769e-01
-3.9236328006e-01 -3.0281639099e+00 -1.2989534438e-01
-4.6650388837e-01 -3.0172655582e+00 -1.2987938523e-01
-5.2191406488e-01 -3.0078904629e+00 -1.2986756861e-01
-5.5875974894e-01 -3.0010936260e+00 -1.2985976040e-01
-5.9550780058e-01 -2.9938280582e+00 -1.2985201180e-01
-7.2335934639e-01 -2.9648828506e+00 -1.2982538342e-01
-7.4151366949e-01 -2.9602928162e+00 -1.2982164323e-01
-7.9581052065e-01 -2.9458982944e+00 -1.2981051207e-01
-8.4983396530e-01 -2.9305076599e+00 -1.2979952991e-01
-8.8568359613e-01 -2.9196875095e+00 -1.2979230285e-01
-9.3918943405e-01 -2.9026560783e+00 -1.2978157401e-01
-1.0627539158e+00 -2.8591015339e+00 -1.2975719571e-01
-1.0977050066e+00 -2.8457031250e+00 -1.2975038588e-01
-1.1151171923e+00 -2.8388476372e+00 -1.2974700332e-01
-1.1843261719e+00 -2.8103320599e+00 -1.2973369658e-01
-1.2186717987e+00 -2.7954492569e+00 -1.2972716987e-01
-1.2528222799e+00 -2.7801561356e+00 -1.2972070277e-01
-1.2698241472e+00 -2.7723436356e+00 -1.2971751392e-01
-1.2867772579e+00 -2.7644336224e+00 -1.2971433997e-01
-1.3036816120e+00 -2.7564256191e+00 -1.2971116602e-01
-1.3541015387e+00 -2.7317383289e+00 -1.2970180809e-01
-1.4205956459e+00 -2.6974217892e+00 -1.2968963385e-01
-1.4370898008e+00 -2.6886131763e+00 -1.2968663871e-01
-1.4699022770e+00 -2.6706445217e+00 -1.2968072295e-01
-1.4862304926e+00 -2.6615233421e+00 -1.2967777252e-01
-1.5348632336e+00 -2.6335351467e+00 -1.2966912985e-01
-1.5509667397e+00 -2.6240038872e+00 -1.2966628373e-01
-1.5669921637e+00 -2.6143748760e+00 -1.2966346741e-01
-1.5829784870e+00 -2.6046679020e+00 -1.2966066599e-01
-1.5988965034e+00 -2.5948436260e+00 -1.2965787947e-01
-1.6147558689e+00 -2.5849413872e+00 -1.2965512276e-01
-1.6775683165e+00 -2.5443162918e+00 -1.2964433432e-01
-1.7085839510e+00 -2.5234375000e+00 -1.2963907421e-01
-1.7240039110e+00 -2.5128514767e+00 -1.2963648140e-01
-1.7546484470e+00 -2.4914257526e+00 -1.2963134050e-01
-1.7850195169e+00 -2.4695897102e+00 -1.2962630391e-01
-1.8151171207e+00 -2.4474022388e+00 -1.2962137163e-01
-1.8449511528e+00 -2.4248633385e+00 -1.2961652875e-01
-1.8745019436e+00 -2.4019529819e+00 -1.2961177528e-01
-1.9037694931e+00 -2.3786914349e+00 -1.2960712612e-01
-1.9327441454e+00 -2.3550584316e+00 -1.2960256636e-01
-1.9471288919e+00 -2.3431248665e+00 -1.2960031629e-01
-1.9614355564e+00 -2.3310937881e+00 -1.2959811091e-01
-1.9756737947e+00 -2.3189842701e+00 -1.2959590554e-01
-1.9898241758e+00 -2.3067576885e+00 -1.2959374487e-01
-2.0039062500e+00 -2.2944726944e+00 -1.2959159911e-01
-2.0179197788e+00 -2.2820897102e+00 -1.2958948314e-01
-2.0457031727e+00 -2.2570898533e+00 -1.2958531082e-01
-2.0594823360e+00 -2.2444531918e+00 -1.2958325446e-01
-2.0868065357e+00 -2.2189452648e+00 -1.2957924604e-01
-2.1138086319e+00 -2.1931054592e+00 -1.2957532704e-01
-2.1271874905e+00 -2.1800780296e+00 -1.2957340479e-01
-2.1404979229e+00 -2.1669530869e+00 -1.2957151234e-01
-2.2058007717e+00 -2.1001172066e+00 -1.2956242263e-01
-2.2313475609e+00 -2.0728318691e+00 -1.2955896556e-01
-2.2565624714e+00 -2.0452537537e+00 -1.2955559790e-01
-2.2690429688e+00 -2.0313475132e+00 -1.2955395877e-01
-2.2814354897e+00 -2.0173633099e+00 -1.2955234945e-01
-2.2937500477e+00 -2.0033006668e+00 -1.2955076993e-01
-2.3059668541e+00 -1.9891406298e+00 -1.2954920530e-01
-2.3774511814e+00 -1.9027733803e+00 -1.2954039872e-01
-2.4005761147e+00 -1.8734179735e+00 -1.2953767180e-01
-2.4233398438e+00 -1.8437889814e+00 -1.2953504920e-01
-2.4345800877e+00 -1.8288671970e+00 -1.2953376770e-01
-2.4457323551e+00 -1.8138670921e+00 -1.2953253090e-01
-2.4567968845e+00 -1.7988281250e+00 -1.2953130901e-01
-2.4677734375e+00 -1.7837109566e+00 -1.2953011692e-01
-2.4786326885e+00 -1.7684960365e+00 -1.2952896953e-01
-2.4894237518e+00 -1.7532421350e+00 -1.2952783704e-01
-2.5212011337e+00 -1.7070897818e+00 -1.2952457368e-01
-2.5316112041e+00 -1.6915819645e+00 -1.2952356040e-01
-2.5419237614e+00 -1.6759960651e+00 -1.2952254713e-01
-2.5521385670e+00 -1.6603515148e+00 -1.2952159345e-01
-2.5622558594e+00 -1.6446484327e+00 -1.2952063978e-01
-2.5722851753e+00 -1.6288866997e+00 -1.2951971591e-01
-2.5822069645e+00 -1.6130663157e+00 -1.2951883674e-01
-2.5920410156e+00 -1.5971679688e+00 -1.2951795757e-01
-2.6017773151e+00 -1.5812304020e+00 -1.2951712310e-01
-2.6209568977e+00 -1.5491601229e+00 -1.2951552868e-01
-2.6303906441e+00 -1.5330468416e+00 -1.2951478362e-01
-2.6397459507e+00 -1.5168749094e+00 -1.2951405346e-01
-2.6489844322e+00 -1.5006250143e+00 -1.2951335311e-01
-2.6581346989e+00 -1.4843554497e+00 -1.2951268256e-01
-2.6761131287e+00 -1.4516015053e+00 -1.2951141596e-01
-2.7023437023e+00 -1.4020702839e+00 -1.2950973213e-01
-2.7193357944e+00 -1.3688085079e+00 -1.2950873375e-01
-2.7276659012e+00 -1.3520897627e+00 -1.2950828671e-01
-2.7599999905e+00 -1.2847265005e+00 -1.2950675189e-01
-2.7678320408e+00 -1.2677538395e+00 -1.2950643897e-01
-2.7755467892e+00 -1.2507421970e+00 -1.2950615585e-01
-2.7831542492e+00 -1.2336913347e+00 -1.2950590253e-01
-2.7906639576e+00 -1.2165820599e+00 -1.2950566411e-01
-2.7980761528e+00 -1.1994531155e+00 -1.2950545549e-01
-2.8053710461e+00 -1.1822460890e+00 -1.2950529158e-01
-2.8196678162e+00 -1.1477344036e+00 -1.2950502336e-01
-2.8469822407e+00 -1.0781835318e+00 -1.2950481474e-01
-2.8535449505e+00 -1.0607031584e+00 -1.2950484455e-01
-2.8599998951e+00 -1.0431640148e+00 -1.2950488925e-01
-2.8663475513e+00 -1.0256054401e+00 -1.2950496376e-01
-2.8725976944e+00 -1.0080077648e+00 -1.2950506806e-01
-2.8787205219e+00 -9.9035155773e-01 -1.2950520217e-01
-2.8906738758e+00 -9.5496094227e-01 -1.2950554490e-01
-2.8964843750e+00 -9.3720698357e-01 -1.2950575352e-01
-2.9021775723e+00 -9.1941404343e-01 -1.2950600684e-01
-2.9186327457e+00 -8.6583983898e-01 -1.2950688601e-01
-2.9341113567e+00 -8.1199216843e-01 -1.2950803339e-01
-2.9485838413e+00 -7.5785154104e-01 -1.2950943410e-01
-2.9531738758e+00 -7.3974609375e-01 -1.2950994074e-01
-2.9620604515e+00 -7.0345699787e-01 -1.2951107323e-01
-2.9823338985e+00 -6.1228513718e-01 -1.2951433659e-01
-2.9860448837e+00 -5.9396481514e-01 -1.2951508164e-01
-2.9965331554e+00 -5.3892576694e-01 -1.2951746583e-01
-3.0059959888e+00 -4.8367187381e-01 -1.2952010334e-01
-3.0089354515e+00 -4.6523436904e-01 -1.2952102721e-01
-3.0144627094e+00 -4.2828124762e-01 -1.2952296436e-01
-3.0170605183e+00 -4.0978515148e-01 -1.2952397764e-01
-3.0195410252e+00 -3.9126953483e-01 -1.2952500582e-01
-3.0219140053e+00 -3.7273436785e-01 -1.2952607870e-01
-3.0263085365e+00 -3.3562499285e-01 -1.2952828407e-01
-3.0283496380e+00 -3.1705078483e-01 -1.2952943146e-01
-3.0302538872e+00 -2.9845702648e-01 -1.2953062356e-01
-3.0353026390e+00 -2.4263671041e-01 -1.2953430414e-01
-3.0367772579e+00 -2.2402343154e-01 -1.2953557074e-01
-3.0381152630e+00 -2.0539061725e-01 -1.2953688204e-01
-3.0423827171e+00 -1.3076171279e-01 -1.2954238057e-01
-3.0431542397e+00 -1.1208984256e-01 -1.2954382598e-01
-3.0448045731e+00 -5.6074216962e-02 -1.2954829633e-01
-3.0451269150e+00 -3.7382811308e-02 -1.2954984605e-01
-3.0453417301e+00 -1.8691405654e-02 -1.2955141068e-01
-2.1451561451e+00 -1.9531249563e-05 -1.2975820899e-01
-2.1450390816e+00 2.6308592409e-02 -1.2976051867e-01
-2.1445899010e+00 5.2636716515e-02 -1.2976290286e-01
-2.1442480087e+00 6.5800778568e-02 -1.2976412475e-01
-2.1438281536e+00 7.8945308924e-02 -1.2976536155e-01
-2.1433203220e+00 9.2109374702e-02 -1.2976661325e-01
-2.1413280964e+00 1.3154296577e-01 -1.2977048755e-01
-2.1405076981e+00 1.4468750358e-01 -1.2977181375e-01
-2.1395897865e+00 1.5781249106e-01 -1.2977315485e-01
-2.1351659298e+00 2.1029296517e-01 -1.2977871299e-01
-2.1309959888e+00 2.4955077469e-01 -1.2978306413e-01
-2.1243360043e+00 3.0179685354e-01 -1.2978911400e-01
-2.1224706173e+00 3.1482422352e-01 -1.2979066372e-01
-2.1205272675e+00 3.2785156369e-01 -1.2979224324e-01
-2.1163866520e+00 3.5384765267e-01 -1.2979543209e-01
-2.1142089367e+00 3.6683592200e-01 -1.2979705632e-01
-2.1119432449e+00 3.7980467081e-01 -1.2979869545e-01
-2.1020996571e+00 4.3154296279e-01 -1.2980541587e-01
-2.0994336605e+00 4.4445312023e-01 -1.2980714440e-01
-2.0966992378e+00 4.5732420683e-01 -1.2980888784e-01
-2.0938866138e+00 4.7019529343e-01 -1.2981064618e-01
-2.0786230564e+00 5.3423827887e-01 -1.2981966138e-01
-2.0753319263e+00 5.4699218273e-01 -1.2982152402e-01
-2.0650000572e+00 5.8511716127e-01 -1.2982718647e-01
-2.0539746284e+00 6.2304687500e-01 -1.2983298302e-01
-2.0462400913e+00 6.4824217558e-01 -1.2983693182e-01
-2.0381932259e+00 6.7332029343e-01 -1.2984094024e-01
-2.0340428352e+00 6.8582028151e-01 -1.2984296679e-01
-2.0255370140e+00 7.1076172590e-01 -1.2984706461e-01
-2.0211718082e+00 7.2318357229e-01 -1.2984913588e-01
-2.0167381763e+00 7.3558592796e-01 -1.2985122204e-01
-2.0122070312e+00 7.4794918299e-01 -1.2985332310e-01
-2.0076172352e+00 7.6029294729e-01 -1.2985543907e-01
-1.9982030392e+00 7.8490233421e-01 -1.2985971570e-01
-1.9835156202e+00 8.2158201933e-01 -1.2986624241e-01
-1.9733495712e+00 8.4589838982e-01 -1.2987066805e-01
-1.9681543112e+00 8.5800778866e-01 -1.2987290323e-01
-1.9521288872e+00 8.9414060116e-01 -1.2987968326e-01
-1.9466503859e+00 9.0611326694e-01 -1.2988196313e-01
-1.9410839081e+00 9.1804683208e-01 -1.2988427281e-01
-1.9354491234e+00 9.2996090651e-01 -1.2988658249e-01
-1.9239648581e+00 9.5367187262e-01 -1.2989126146e-01
-1.9061913490e+00 9.8898434639e-01 -1.2989836931e-01
-1.8939745426e+00 1.0123437643e+00 -1.2990318239e-01
-1.8814843893e+00 1.0355468988e+00 -1.2990804017e-01
-1.8687011003e+00 1.0585937500e+00 -1.2991294265e-01
-1.8622069359e+00 1.0700585842e+00 -1.2991543114e-01
-1.8556444645e+00 1.0814843178e+00 -1.2991791964e-01
-1.8355273008e+00 1.1155272722e+00 -1.2992544472e-01
-1.8147948980e+00 1.1491992474e+00 -1.2993308902e-01
-1.7788573503e+00 1.2044531107e+00 -1.2994606793e-01
-1.7640136480e+00 1.2262303829e+00 -1.2995134294e-01
-1.7412499189e+00 1.2585742474e+00 -1.2995932996e-01
-1.7257421017e+00 1.2799023390e+00 -1.2996470928e-01
-1.7178906202e+00 1.2904882431e+00 -1.2996742129e-01
-1.6776757240e+00 1.3427147865e+00 -1.2998111546e-01
-1.6694433689e+00 1.3530273438e+00 -1.2998388708e-01
-1.6611523628e+00 1.3632616997e+00 -1.2998665869e-01
-1.6527831554e+00 1.3734569550e+00 -1.2998944521e-01
-1.6443651915e+00 1.3836132288e+00 -1.2999224663e-01
-1.6187206507e+00 1.4137303829e+00 -1.3000069559e-01
-1.6100487709e+00 1.4236718416e+00 -1.3000354171e-01
-1.5658007860e+00 1.4725586176e+00 -1.3001786172e-01
-1.5476855040e+00 1.4917187691e+00 -1.3002364337e-01
-1.5385351181e+00 1.5012304783e+00 -1.3002656400e-01
-1.5293260813e+00 1.5106639862e+00 -1.3002946973e-01
-1.4632909298e+00 1.5751953125e+00 -1.3005012274e-01
-1.4439061880e+00 1.5931054354e+00 -1.3005609810e-01
-1.4341405630e+00 1.6019725800e+00 -1.3005907834e-01
-1.4144433737e+00 1.6195311546e+00 -1.3006509840e-01
-1.4045116901e+00 1.6282225847e+00 -1.3006810844e-01
-1.3945312500e+00 1.6368359327e+00 -1.3007113338e-01
-1.3844823837e+00 1.6454100609e+00 -1.3007415831e-01
-1.3743847609e+00 1.6539062262e+00 -1.3007719815e-01
-1.3642480373e+00 1.6623437405e+00 -1.3008023798e-01
-1.3231639862e+00 1.6954686642e+00 -1.3009247184e-01
-1.2706835270e+00 1.7354687452e+00 -1.3010790944e-01
-1.2493554354e+00 1.7510155439e+00 -1.3011410832e-01
-1.2386132479e+00 1.7586913109e+00 -1.3011723757e-01
-1.2278319597e+00 1.7662889957e+00 -1.3012033701e-01
-1.2170019150e+00 1.7738475800e+00 -1.3012346625e-01
-1.2061229944e+00 1.7813085318e+00 -1.3012659550e-01
-1.1842285395e+00 1.7960741520e+00 -1.3013286889e-01
-1.1732128859e+00 1.8033398390e+00 -1.3013599813e-01
-1.1621581316e+00 1.8105468750e+00 -1.3013914227e-01
-1.1287108660e+00 1.8317773342e+00 -1.3014860451e-01
-1.0721191168e+00 1.8657616377e+00 -1.3016445935e-01
-1.0606836081e+00 1.8723436594e+00 -1.3016763330e-01
-1.0145117044e+00 1.8980077505e+00 -1.3018037379e-01
-9.3223631382e-01 1.9401562214e+00 -1.3020278513e-01
-9.2034178972e-01 1.9458788633e+00 -1.3020598888e-01
-9.0840816498e-01 1.9515429735e+00 -1.3020920753e-01
-8.8443356752e-01 1.9626367092e+00 -1.3021562994e-01
-8.6032223701e-01 1.9734374285e+00 -1.3022206724e-01
-8.4822261333e-01 1.9787304401e+00 -1.3022527099e-01
-8.2391601801e-01 1.9891015291e+00 -1.3023170829e-01
-8.1170898676e-01 1.9941600561e+00 -1.3023494184e-01
-7.8721678257e-01 2.0040819645e+00 -1.3024137914e-01
-7.7492183447e-01 2.0089061260e+00 -1.3024459779e-01
-7.6260739565e-01 2.0136914253e+00 -1.3024781644e-01
-7.5025391579e-01 2.0183789730e+00 -1.3025103509e-01
-7.3787105083e-01 2.0229883194e+00 -1.3025426865e-01
-7.1302729845e-01 2.0319921970e+00 -1.3026070595e-01
-7.0056641102e-01 2.0363867283e+00 -1.3026392460e-01
-6.8807613850e-01 2.0406835079e+00 -1.3026714325e-01
-6.5043944120e-01 2.0531640053e+00 -1.3027679920e-01
-6.2523436546e-01 2.0610938072e+00 -1.3028323650e-01
-5.8722656965e-01 2.0724022388e+00 -1.3029287755e-01
-5.6177735329e-01 2.0795702934e+00 -1.3029929996e-01
-5.4902344942e-01 2.0830273628e+00 -1.3030250371e-01
-5.3624999523e-01 2.0864062309e+00 -1.3030570745e-01
-5.2344727516e-01 2.0897068977e+00 -1.3030891120e-01
-5.1062500477e-01 2.0929296017e+00 -1.3031211495e-01
-4.9778318405e-01 2.0960741043e+00 -1.3031531870e-01
-4.8493161798e-01 2.0991406441e+00 -1.3031850755e-01
-4.7205075622e-01 2.1021287441e+00 -1.3032171130e-01
-4.5916014910e-01 2.1050391197e+00 -1.3032490015e-01
-4.4624021649e-01 2.1078710556e+00 -1.3032808900e-01
-4.3331053853e-01 2.1106250286e+00 -1.3033127785e-01
-4.2036131024e-01 2.1132812500e+00 -1.3033445179e-01
-4.0740233660e-01 2.1158788204e+00 -1.3033764064e-01
-3.6840820312e-01 2.1231639385e+00 -1.3034714758e-01
-3.5538086295e-01 2.1254296303e+00 -1.3035032153e-01
-3.4233397245e-01 2.1276171207e+00 -1.3035348058e-01
-3.2927733660e-01 2.1297264099e+00 -1.3035663962e-01
-3.0313476920e-01 2.1337108612e+00 -1.3036294281e-01
-2.5070312619e-01 2.1407225132e+00 -1.3037550449e-01
-2.3756834865e-01 2.1422655582e+00 -1.3037861884e-01
-2.1127928793e-01 2.1451365948e+00 -1.3038487732e-01
-1.9811522961e-01 2.1464257240e+00 -1.3038797677e-01
-1.4539061487e-01 2.1508593559e+00 -1.3040038943e-01
-1.3218750060e-01 2.1517577171e+00 -1.3040347397e-01
-1.1898437142e-01 2.1525781155e+00 -1.3040654361e-01
-1.0578124970e-01 2.1533203125e+00 -1.3040962815e-01
-7.9355463386e-02 2.1545507908e+00 -1.3041575253e-01
-6.6132813692e-02 2.1550586224e+00 -1.3041880727e-01
-1.3222656213e-02 2.1562304497e+00 -1.3043096662e-01
9.7656247817e-06 2.1563279629e+00 -1.3043399155e-01
1.3232421130e-02 2.1563279629e+00 -1.3043700159e-01
3.9697263390e-02 2.1561131477e+00 -1.3044302166e-01
6.6162109375e-02 2.1555469036e+00 -1.3044901192e-01
7.9384766519e-02 2.1551561356e+00 -1.3045199215e-01
9.2607416213e-02 2.1546874046e+00 -1.3045495749e-01
1.0583007336e-01 2.1541211605e+00 -1.3045792282e-01
1.1905273050e-01 2.1534764767e+00 -1.3046087325e-01
1.3226562738e-01 2.1527538300e+00 -1.3046383858e-01
1.5868163109e-01 2.1510741711e+00 -1.3046970963e-01
1.9826170802e-01 2.1479296684e+00 -1.3047845662e-01
2.1143554151e-01 2.1467187405e+00 -1.3048134744e-01
2.2460937500e-01 2.1454296112e+00 -1.3048423827e-01
2.3778319359e-01 2.1440625191e+00 -1.3048712909e-01
2.6408201456e-01 2.1410741806e+00 -1.3049286604e-01
2.7721679211e-01 2.1394531727e+00 -1.3049571216e-01
3.4275388718e-01 2.1301758289e+00 -1.3050985336e-01
3.5583007336e-01 2.1280858517e+00 -1.3051265478e-01
3.8192382455e-01 2.1236522198e+00 -1.3051821291e-01
3.9495116472e-01 2.1213085651e+00 -1.3052098453e-01
4.0796872973e-01 2.1189062595e+00 -1.3052374125e-01
4.3396484852e-01 2.1138281822e+00 -1.3052922487e-01
4.5988279581e-01 2.1084179878e+00 -1.3053466380e-01
4.7282224894e-01 2.1056053638e+00 -1.3053737581e-01
4.8574218154e-01 2.1027147770e+00 -1.3054005802e-01
4.9865233898e-01 2.0997264385e+00 -1.3054275513e-01
5.3724610806e-01 2.0903320312e+00 -1.3055072725e-01
5.6288087368e-01 2.0836522579e+00 -1.3055600226e-01
5.7566404343e-01 2.0802147388e+00 -1.3055860996e-01
6.0117185116e-01 2.0730469227e+00 -1.3056381047e-01
6.1389648914e-01 2.0693554878e+00 -1.3056638837e-01
6.2659180164e-01 2.0656054020e+00 -1.3056896627e-01
6.5192383528e-01 2.0578320026e+00 -1.3057404757e-01
7.2730469704e-01 2.0326757431e+00 -1.3058906794e-01
7.3977535963e-01 2.0282225609e+00 -1.3059151173e-01
7.6463866234e-01 2.0190625191e+00 -1.3059638441e-01
7.8939449787e-01 2.0096092224e+00 -1.3060121238e-01
8.1402343512e-01 1.9998437166e+00 -1.3060598075e-01
8.2628905773e-01 1.9948437214e+00 -1.3060835004e-01
8.3853513002e-01 1.9897655249e+00 -1.3061068952e-01
8.7505859137e-01 1.9741015434e+00 -1.3061764836e-01
9.1129881144e-01 1.9577734470e+00 -1.3062450290e-01
9.2331051826e-01 1.9521678686e+00 -1.3062675297e-01
9.4722652435e-01 1.9407616854e+00 -1.3063120842e-01
9.5913082361e-01 1.9349414110e+00 -1.3063342869e-01
9.7100585699e-01 1.9290624857e+00 -1.3063561916e-01
1.0064061880e+00 1.9109569788e+00 -1.3064213097e-01
1.0181249380e+00 1.9047656059e+00 -1.3064426184e-01
1.0298144817e+00 1.8985351324e+00 -1.3064639270e-01
1.0414550304e+00 1.8922070265e+00 -1.3064847887e-01
1.0530663729e+00 1.8858007193e+00 -1.3065057993e-01
1.0646288395e+00 1.8793358803e+00 -1.3065265119e-01
1.0761620998e+00 1.8727929592e+00 -1.3065470755e-01
1.0876464844e+00 1.8661913872e+00 -1.3065676391e-01
1.0991015434e+00 1.8595117331e+00 -1.3065879047e-01
1.1105078459e+00 1.8527538776e+00 -1.3066080213e-01
1.1444725990e+00 1.8320897818e+00 -1.3066676259e-01
1.1669043303e+00 1.8179687262e+00 -1.3067065179e-01
1.1780565977e+00 1.8108007908e+00 -1.3067255914e-01
1.2002246380e+00 1.7962499857e+00 -1.3067635894e-01
1.2112401724e+00 1.7888866663e+00 -1.3067823648e-01
1.2222069502e+00 1.7814452648e+00 -1.3068008423e-01
1.2331347466e+00 1.7739257812e+00 -1.3068193197e-01
1.2440136671e+00 1.7663671970e+00 -1.3068374991e-01
1.2656347752e+00 1.7510155439e+00 -1.3068734109e-01
1.2870604992e+00 1.7353905439e+00 -1.3069087267e-01
1.3082909584e+00 1.7195116282e+00 -1.3069434464e-01
1.3293261528e+00 1.7033789158e+00 -1.3069774210e-01
1.3708007336e+00 1.6703124046e+00 -1.3070432842e-01
1.3912304640e+00 1.6534179449e+00 -1.3070751727e-01
1.4013574123e+00 1.6448632479e+00 -1.3070909679e-01
1.4214745760e+00 1.6275781393e+00 -1.3071216643e-01
1.4314550161e+00 1.6188476086e+00 -1.3071370125e-01
1.4512401819e+00 1.6011914015e+00 -1.3071666658e-01
1.4610546827e+00 1.5922851562e+00 -1.3071814179e-01
1.4708105326e+00 1.5833007097e+00 -1.3071958721e-01
1.4997558594e+00 1.5560156107e+00 -1.3072381914e-01
1.5187695026e+00 1.5375194550e+00 -1.3072654605e-01
1.5468652248e+00 1.5093554258e+00 -1.3073050976e-01
1.5561034679e+00 1.4998241663e+00 -1.3073179126e-01
1.5744237900e+00 1.4806444645e+00 -1.3073430955e-01
1.5834960938e+00 1.4709764719e+00 -1.3073553145e-01
1.5925097466e+00 1.4612499475e+00 -1.3073675334e-01
1.6014550924e+00 1.4514647722e+00 -1.3073794544e-01
1.6191796064e+00 1.4317382574e+00 -1.3074027002e-01
1.6279492378e+00 1.4217773676e+00 -1.3074140251e-01
1.6538866758e+00 1.3916015625e+00 -1.3074469566e-01
1.6624120474e+00 1.3814452887e+00 -1.3074576855e-01
1.6708691120e+00 1.3712304831e+00 -1.3074681163e-01
1.6792675257e+00 1.3609570265e+00 -1.3074782491e-01
1.6958690882e+00 1.3402733803e+00 -1.3074982166e-01
1.7040624619e+00 1.3298437595e+00 -1.3075079024e-01
1.7202831507e+00 1.3088672161e+00 -1.3075266778e-01
1.7362401485e+00 1.2876757383e+00 -1.3075447083e-01
1.7441210747e+00 1.2769922018e+00 -1.3075533509e-01
1.7519335747e+00 1.2662889957e+00 -1.3075619936e-01
1.7749804258e+00 1.2338476181e+00 -1.3075862825e-01
1.7825292349e+00 1.2229297161e+00 -1.3075940311e-01
1.7900097370e+00 1.2119921446e+00 -1.3076016307e-01
1.7974218130e+00 1.2009764910e+00 -1.3076090813e-01
1.8047655821e+00 1.1899414062e+00 -1.3076162338e-01
1.8473925591e+00 1.1227343082e+00 -1.3076551259e-01
1.8542480469e+00 1.1113866568e+00 -1.3076609373e-01
1.8939549923e+00 1.0424022675e+00 -1.3076916337e-01
1.9128320217e+00 1.0073827505e+00 -1.3077042997e-01
1.9189842939e+00 9.9562495947e-01 -1.3077081740e-01
1.9250682592e+00 9.8384761810e-01 -1.3077117503e-01
1.9310741425e+00 9.7201168537e-01 -1.3077153265e-01
1.9486522675e+00 9.3630856276e-01 -1.3077244163e-01
1.9543554783e+00 9.2433589697e-01 -1.3077269495e-01
1.9655663967e+00 9.0029293299e-01 -1.3077317178e-01
1.9922655821e+00 8.3957028389e-01 -1.3077399135e-01
2.0024218559e+00 8.1505858898e-01 -1.3077418506e-01
2.0073926449e+00 8.0277341604e-01 -1.3077425957e-01
2.0122849941e+00 7.9042965174e-01 -1.3077428937e-01
2.0170898438e+00 7.7806639671e-01 -1.3077431917e-01
2.0310742855e+00 7.4082028866e-01 -1.3077428937e-01
2.0355761051e+00 7.2833985090e-01 -1.3077422976e-01
2.0443553925e+00 7.0330077410e-01 -1.3077405095e-01
2.0688378811e+00 6.2757813931e-01 -1.3077308238e-01
2.0726463795e+00 6.1486327648e-01 -1.3077284396e-01
2.0763769150e+00 6.0212886333e-01 -1.3077259064e-01
2.0836033821e+00 5.7660156488e-01 -1.3077202439e-01
2.0938475132e+00 5.3814452887e-01 -1.3077102602e-01
2.0971093178e+00 5.2529293299e-01 -1.3077066839e-01
2.1033787727e+00 4.9951171875e-01 -1.3076986372e-01
2.1064062119e+00 4.8660156131e-01 -1.3076943159e-01
2.1176757812e+00 4.3474608660e-01 -1.3076750934e-01
2.1203026772e+00 4.2175781727e-01 -1.3076697290e-01
2.1228320599e+00 4.0873044729e-01 -1.3076642156e-01
2.1252930164e+00 3.9570310712e-01 -1.3076585531e-01
2.1276757717e+00 3.8263669610e-01 -1.3076525927e-01
2.1299803257e+00 3.6958983541e-01 -1.3076466322e-01
2.1343262196e+00 3.4341797233e-01 -1.3076338172e-01
2.1363768578e+00 3.3031249046e-01 -1.3076271117e-01
2.1383593082e+00 3.1718748808e-01 -1.3076202571e-01
2.1402537823e+00 3.0406248569e-01 -1.3076132536e-01
2.1420702934e+00 2.9091796279e-01 -1.3076059520e-01
2.1454589367e+00 2.6460936666e-01 -1.3075909019e-01
2.1512498856e+00 2.1187499166e-01 -1.3075584173e-01
2.1536521912e+00 1.8544921279e-01 -1.3075409830e-01
2.1547265053e+00 1.7224608362e-01 -1.3075320423e-01
2.1566503048e+00 1.4578124881e-01 -1.3075135648e-01
2.1575000286e+00 1.3253906369e-01 -1.3075040281e-01
2.1582422256e+00 1.1929687113e-01 -1.3074941933e-01
2.1610741615e+00 3.9785154164e-02 -1.3074317575e-01
2.1612596512e+00 2.6523437351e-02 -1.3074207306e-01
2.1613671780e+00 1.3261718675e-02 -1.3074094057e-01
2.1606640816e+00 -5.3046874702e-02 -1.3073502481e-01
2.1602733135e+00 -6.6308595240e-02 -1.3073378801e-01
2.1598045826e+00 -7.9550780356e-02 -1.3073253632e-01
2.1592576504e+00 -9.2812500894e-02 -1.3073126972e-01
2.1586229801e+00 -1.0605468601e-01 -1.3072997332e-01
2.1579101086e+00 -1.1929687113e-01 -1.3072866201e-01
2.1552832127e+00 -1.5898437798e-01 -1.3072462380e-01
2.1506445408e+00 -2.1181640029e-01 -1.3071899116e-01
2.1492772102e+00 -2.2501952946e-01 -1.3071754575e-01
2.1412303448e+00 -2.9082030058e-01 -1.3071000576e-01
2.1393847466e+00 -3.0394530296e-01 -1.3070844114e-01
2.1374511719e+00 -3.1707030535e-01 -1.3070687652e-01
2.1354393959e+00 -3.3017578721e-01 -1.3070528209e-01
2.1311719418e+00 -3.5634765029e-01 -1.3070203364e-01
2.1289160252e+00 -3.6941406131e-01 -1.3070037961e-01
2.1241698265e+00 -3.9548826218e-01 -1.3069704175e-01
2.1216795444e+00 -4.0851560235e-01 -1.3069534302e-01
2.1191112995e+00 -4.2152342200e-01 -1.3069362938e-01
2.1137206554e+00 -4.4748046994e-01 -1.3069015741e-01
2.1080076694e+00 -4.7337889671e-01 -1.3068661094e-01
2.1019823551e+00 -4.9919921160e-01 -1.3068300486e-01
2.0923535824e+00 -5.3777343035e-01 -1.3067746162e-01
2.0855369568e+00 -5.6339842081e-01 -1.3067369163e-01
2.0820116997e+00 -5.7617187500e-01 -1.3067178428e-01
2.0783984661e+00 -5.8892577887e-01 -1.3066984713e-01
2.0747168064e+00 -6.0166013241e-01 -1.3066790998e-01
2.0671191216e+00 -6.2705075741e-01 -1.3066397607e-01
2.0632030964e+00 -6.3972651958e-01 -1.3066199422e-01
2.0592088699e+00 -6.5236324072e-01 -1.3065998256e-01
2.0551366806e+00 -6.6498047113e-01 -1.3065795600e-01
2.0424511433e+00 -7.0265620947e-01 -1.3065180182e-01
2.0244629383e+00 -7.5251948833e-01 -1.3064338267e-01
2.0197753906e+00 -7.6492184401e-01 -1.3064123690e-01
2.0149998665e+00 -7.7728515863e-01 -1.3063907623e-01
2.0101561546e+00 -7.8960937262e-01 -1.3063691556e-01
2.0002539158e+00 -8.1419920921e-01 -1.3063251972e-01
1.9951854944e+00 -8.2644528151e-01 -1.3063029945e-01
1.9576269388e+00 -9.1123044491e-01 -1.3061439991e-01
1.9462304115e+00 -9.3515622616e-01 -1.3060973585e-01
1.9404199123e+00 -9.4707030058e-01 -1.3060736656e-01
1.9345312119e+00 -9.5894527435e-01 -1.3060499728e-01
1.9225487709e+00 -9.8257809877e-01 -1.3060021400e-01
1.9164452553e+00 -9.9433588982e-01 -1.3059781492e-01
1.8977148533e+00 -1.0293749571e+00 -1.3059049845e-01
1.8913280964e+00 -1.0409765244e+00 -1.3058803976e-01
1.8783397675e+00 -1.0640820265e+00 -1.3058307767e-01
1.8717381954e+00 -1.0755664110e+00 -1.3058058918e-01
1.8515233994e+00 -1.1097656488e+00 -1.3057301939e-01
1.8446385860e+00 -1.1210937500e+00 -1.3057045639e-01
1.8376952410e+00 -1.1323632002e+00 -1.3056789339e-01
1.8306738138e+00 -1.1435936689e+00 -1.3056533039e-01
1.8235839605e+00 -1.1547851562e+00 -1.3056273758e-01
1.8164256811e+00 -1.1659179926e+00 -1.3056014478e-01
1.8019139767e+00 -1.1880859137e+00 -1.3055491447e-01
1.7945507765e+00 -1.1990820169e+00 -1.3055229187e-01
1.7871289253e+00 -1.2100585699e+00 -1.3054963946e-01
1.7644432783e+00 -1.2426757812e+00 -1.3054165244e-01
1.7489745617e+00 -1.2641797066e+00 -1.3053625822e-01
1.7092089653e+00 -1.3170897961e+00 -1.3052260876e-01
1.6845605373e+00 -1.3482421637e+00 -1.3051429391e-01
1.6678222418e+00 -1.3687499762e+00 -1.3050869107e-01
1.6593554020e+00 -1.3789452314e+00 -1.3050588965e-01
1.6422362328e+00 -1.3991405964e+00 -1.3050024211e-01
1.6335839033e+00 -1.4091601372e+00 -1.3049739599e-01
1.6072655916e+00 -1.4388866425e+00 -1.3048882782e-01
1.5983691216e+00 -1.4486913681e+00 -1.3048593700e-01
1.5894237757e+00 -1.4584374428e+00 -1.3048306108e-01
1.5804003477e+00 -1.4681445360e+00 -1.3048015535e-01
1.5713378191e+00 -1.4777734280e+00 -1.3047726452e-01
1.5437597036e+00 -1.5063281059e+00 -1.3046850264e-01
1.5250878334e+00 -1.5250780582e+00 -1.3046261668e-01
1.4579687119e+00 -1.5889061689e+00 -1.3044179976e-01
1.4382909536e+00 -1.6066210270e+00 -1.3043576479e-01
1.4283788204e+00 -1.6153711081e+00 -1.3043275476e-01
1.3779882193e+00 -1.6582226753e+00 -1.3041755557e-01
1.3574804068e+00 -1.6749414206e+00 -1.3041143119e-01
1.3367577791e+00 -1.6913866997e+00 -1.3040527701e-01
1.2947264910e+00 -1.7235156298e+00 -1.3039292395e-01
1.2840820551e+00 -1.7313866615e+00 -1.3038980961e-01
1.2626855373e+00 -1.7469531298e+00 -1.3038358092e-01
1.2519140244e+00 -1.7546093464e+00 -1.3038046658e-01
1.2410937548e+00 -1.7622265816e+00 -1.3037733734e-01
1.2302246094e+00 -1.7697656155e+00 -1.3037420809e-01
1.2193163633e+00 -1.7772265673e+00 -1.3037107885e-01
1.2083593607e+00 -1.7846288681e+00 -1.3036794960e-01
1.1973534822e+00 -1.7919726372e+00 -1.3036479056e-01
1.1752147675e+00 -1.8064452410e+00 -1.3035848737e-01
1.1640820503e+00 -1.8135741949e+00 -1.3035534322e-01
1.1416796446e+00 -1.8276367188e+00 -1.3034901023e-01
1.1304198503e+00 -1.8345702887e+00 -1.3034585118e-01
1.1191210747e+00 -1.8414257765e+00 -1.3034267724e-01
1.0963866711e+00 -1.8549218178e+00 -1.3033632934e-01
1.0619726181e+00 -1.8746678829e+00 -1.3032677770e-01
1.0504297018e+00 -1.8810937405e+00 -1.3032358885e-01
1.0272167921e+00 -1.8937499523e+00 -1.3031719625e-01
1.0038475990e+00 -1.9061132669e+00 -1.3031080365e-01
9.9210935831e-01 -1.9121874571e+00 -1.3030759990e-01
9.8033201694e-01 -1.9182031155e+00 -1.3030439615e-01
9.6852535009e-01 -1.9241405725e+00 -1.3030119240e-01
9.4479489326e-01 -1.9357812405e+00 -1.3029477000e-01
9.3287104368e-01 -1.9415038824e+00 -1.3029155135e-01
9.0893554688e-01 -1.9526952505e+00 -1.3028512895e-01
8.9691406488e-01 -1.9581835270e+00 -1.3028191030e-01
8.8486325741e-01 -1.9636132717e+00 -1.3027869165e-01
8.4850585461e-01 -1.9794139862e+00 -1.3026903570e-01
8.1186521053e-01 -1.9945507050e+00 -1.3025937974e-01
7.9958981276e-01 -1.9994530678e+00 -1.3025616109e-01
7.8728514910e-01 -2.0042772293e+00 -1.3025292754e-01
7.7496093512e-01 -2.0090038776e+00 -1.3024972379e-01
7.2535157204e-01 -2.0272264481e+00 -1.3023683429e-01
7.1288084984e-01 -2.0315818787e+00 -1.3023361564e-01
6.7531245947e-01 -2.0442187786e+00 -1.3022394478e-01
6.6274410486e-01 -2.0482616425e+00 -1.3022074103e-01
6.5014648438e-01 -2.0522460938e+00 -1.3021752238e-01
6.2488281727e-01 -2.0599608421e+00 -1.3021109998e-01
6.1221677065e-01 -2.0637109280e+00 -1.3020788133e-01
5.8681637049e-01 -2.0709569454e+00 -1.3020145893e-01
5.7408201694e-01 -2.0744531155e+00 -1.3019825518e-01
5.6132811308e-01 -2.0778906345e+00 -1.3019505143e-01
5.3576171398e-01 -2.0845313072e+00 -1.3018865883e-01
5.1011717319e-01 -2.0908398628e+00 -1.3018225133e-01
4.9726560712e-01 -2.0938866138e+00 -1.3017906249e-01
4.5860350132e-01 -2.1025195122e+00 -1.3016949594e-01
4.3275389075e-01 -2.1078906059e+00 -1.3016314805e-01
4.1980469227e-01 -2.1104490757e+00 -1.3015995920e-01
4.0683591366e-01 -2.1129295826e+00 -1.3015680015e-01
3.8084959984e-01 -2.1176757812e+00 -1.3015046716e-01
3.6784178019e-01 -2.1199219227e+00 -1.3014730811e-01
3.1568357348e-01 -2.1281054020e+00 -1.3013471663e-01
3.0260741711e-01 -2.1299414635e+00 -1.3013157248e-01
2.7643555403e-01 -2.1333982944e+00 -1.3012531400e-01
2.5022459030e-01 -2.1365234852e+00 -1.3011907041e-01
2.2397460043e-01 -2.1393358707e+00 -1.3011284173e-01
2.1083983779e-01 -2.1406250000e+00 -1.3010972738e-01
1.8454101682e-01 -2.1429491043e+00 -1.3010352850e-01
1.5822264552e-01 -2.1449413300e+00 -1.3009735942e-01
1.3188476861e-01 -2.1466209888e+00 -1.3009122014e-01
1.1871093512e-01 -2.1473436356e+00 -1.3008815050e-01
6.5966792405e-02 -2.1494140625e+00 -1.3007594645e-01
3.9580076933e-02 -2.1499609947e+00 -1.3006988168e-01
2.6386717334e-02 -2.1501171589e+00 -1.3006687164e-01
1.3193358667e-02 -2.1501758099e+00 -1.3006386161e-01
-2.6376953349e-02 -2.1499023438e+00 -1.3005486131e-01
-3.9570312947e-02 -2.1496484280e+00 -1.3005186617e-01
-5.2753906697e-02 -2.1493163109e+00 -1.3004888594e-01
-9.2304684222e-02 -2.1478514671e+00 -1.3004001975e-01
-1.0547851026e-01 -2.1471874714e+00 -1.3003706932e-01
-1.1865234375e-01 -2.1464452744e+00 -1.3003413379e-01
-1.3181640208e-01 -2.1456444263e+00 -1.3003119826e-01
-1.4497070014e-01 -2.1447460651e+00 -1.3002827764e-01
-1.9754882157e-01 -2.1403515339e+00 -1.3001666963e-01
-2.1067382395e-01 -2.1390428543e+00 -1.3001379371e-01
-2.3689453304e-01 -2.1362109184e+00 -1.3000807166e-01
-2.7616211772e-01 -2.1313476562e+00 -1.2999953330e-01
-2.8922849894e-01 -2.1295702457e+00 -1.2999670208e-01
-3.0228513479e-01 -2.1277148724e+00 -1.2999390066e-01
-3.1532225013e-01 -2.1257617474e+00 -1.2999108434e-01
-3.8034179807e-01 -2.1148436069e+00 -1.2997721136e-01
-3.9330077171e-01 -2.1124217510e+00 -1.2997446954e-01
-4.0625000000e-01 -2.1099412441e+00 -1.2997174263e-01
-4.3208983541e-01 -2.1047070026e+00 -1.2996630371e-01
-4.4499021769e-01 -2.1019725800e+00 -1.2996359169e-01
-4.7073242068e-01 -2.0962693691e+00 -1.2995822728e-01
-4.8357421160e-01 -2.0932812691e+00 -1.2995555997e-01
-5.2199214697e-01 -2.0839061737e+00 -1.2994761765e-01
-5.3475582600e-01 -2.0806250572e+00 -1.2994499505e-01
-5.4750001431e-01 -2.0772655010e+00 -1.2994237244e-01
-5.6022459269e-01 -2.0738279819e+00 -1.2993977964e-01
-5.9827148914e-01 -2.0630469322e+00 -1.2993203104e-01
-6.3610351086e-01 -2.0515625477e+00 -1.2992440164e-01
-6.9867187738e-01 -2.0308787823e+00 -1.2991192937e-01
-7.3588865995e-01 -2.0175585747e+00 -1.2990461290e-01
-7.4824219942e-01 -2.0129687786e+00 -1.2990218401e-01
-7.7286130190e-01 -2.0035741329e+00 -1.2989738584e-01
-7.9736328125e-01 -1.9938671589e+00 -1.2989264727e-01
-8.2173824310e-01 -1.9838476181e+00 -1.2988795340e-01
-8.3387690783e-01 -1.9787499905e+00 -1.2988562882e-01
-8.5806638002e-01 -1.9682811499e+00 -1.2988102436e-01
-8.7011718750e-01 -1.9629491568e+00 -1.2987874448e-01
-8.8212889433e-01 -1.9575389624e+00 -1.2987647951e-01
-9.0604490042e-01 -1.9465038776e+00 -1.2987197936e-01
-9.1795897484e-01 -1.9408788681e+00 -1.2986975908e-01
-9.6525388956e-01 -1.9176366329e+00 -1.2986098230e-01
-9.7698241472e-01 -1.9116405249e+00 -1.2985883653e-01
-9.8868161440e-01 -1.9055858850e+00 -1.2985669076e-01
-1.0465819836e+00 -1.8741991520e+00 -1.2984621525e-01
-1.0580468178e+00 -1.8677147627e+00 -1.2984417379e-01
-1.0808593035e+00 -1.8545507193e+00 -1.2984010577e-01
-1.0921972990e+00 -1.8478515148e+00 -1.2983809412e-01
-1.1034960747e+00 -1.8410742283e+00 -1.2983611226e-01
-1.1147558689e+00 -1.8342382908e+00 -1.2983413041e-01
-1.1371483803e+00 -1.8203710318e+00 -1.2983022630e-01
-1.1482812166e+00 -1.8133398294e+00 -1.2982830405e-01
-1.1593651772e+00 -1.8062304258e+00 -1.2982639670e-01
-1.1704101562e+00 -1.7990624905e+00 -1.2982450426e-01
-1.2032715082e+00 -1.7771288157e+00 -1.2981891632e-01
-1.2141406536e+00 -1.7696874142e+00 -1.2981708348e-01
-1.2677636147e+00 -1.7315038443e+00 -1.2980817258e-01
-1.2888768911e+00 -1.7157616615e+00 -1.2980471551e-01
-1.3201855421e+00 -1.6916795969e+00 -1.2979966402e-01
-1.3305175304e+00 -1.6835350990e+00 -1.2979802489e-01
-1.3612401485e+00 -1.6586718559e+00 -1.2979316711e-01
-1.3914843798e+00 -1.6332812309e+00 -1.2978847325e-01
-1.4014648199e+00 -1.6246874332e+00 -1.2978695333e-01
-1.4113965034e+00 -1.6160351038e+00 -1.2978543341e-01
-1.4408495426e+00 -1.5897265673e+00 -1.2978099287e-01
-1.4505566359e+00 -1.5808397532e+00 -1.2977956235e-01
-1.4793652296e+00 -1.5538281202e+00 -1.2977533042e-01
-1.4888573885e+00 -1.5447069407e+00 -1.2977395952e-01
-1.4982910156e+00 -1.5355273485e+00 -1.2977260351e-01
-1.5262597799e+00 -1.5076366663e+00 -1.2976863980e-01
-1.5446190834e+00 -1.4887695312e+00 -1.2976609170e-01
-1.5717089176e+00 -1.4600390196e+00 -1.2976241112e-01
-1.5806249380e+00 -1.4503710270e+00 -1.2976121902e-01
-1.5982714891e+00 -1.4308397770e+00 -1.2975889444e-01
-1.6156835556e+00 -1.4110937119e+00 -1.2975662947e-01
-1.6413476467e+00 -1.3810741901e+00 -1.2975338101e-01
-1.6497753859e+00 -1.3709570169e+00 -1.2975232303e-01
-1.6581444740e+00 -1.3608007431e+00 -1.2975130975e-01
-1.6664550304e+00 -1.3505859375e+00 -1.2975029647e-01
-1.6990429163e+00 -1.3092577457e+00 -1.2974645197e-01
-1.7070312500e+00 -1.2987890244e+00 -1.2974554300e-01
-1.7306151390e+00 -1.2671288252e+00 -1.2974290550e-01
-1.7460057735e+00 -1.2457811832e+00 -1.2974125147e-01
-1.7536034584e+00 -1.2350389957e+00 -1.2974044681e-01
-1.7611327171e+00 -1.2242382765e+00 -1.2973965704e-01
-1.7760058641e+00 -1.2025195360e+00 -1.2973815203e-01
-1.7833495140e+00 -1.1916015148e+00 -1.2973743677e-01
-1.7906152010e+00 -1.1806249619e+00 -1.2973672152e-01
-1.8190135956e+00 -1.1363085508e+00 -1.2973409891e-01
-1.8328026533e+00 -1.1138867140e+00 -1.2973289192e-01
-1.8395898342e+00 -1.1026171446e+00 -1.2973232567e-01
-1.8725097179e+00 -1.0456445217e+00 -1.2972974777e-01
-1.8788866997e+00 -1.0341405869e+00 -1.2972930074e-01
-1.8851952553e+00 -1.0225781202e+00 -1.2972885370e-01
-1.8914257288e+00 -1.0109961033e+00 -1.2972845137e-01
-1.8975878954e+00 -9.9937498569e-01 -1.2972804904e-01
-1.9273241758e+00 -9.4068354368e-01 -1.2972636521e-01
-1.9330565929e+00 -9.2882812023e-01 -1.2972606719e-01
-1.9498144388e+00 -8.9308589697e-01 -1.2972535193e-01
-1.9552538395e+00 -8.8111329079e-01 -1.2972514331e-01
-1.9659179449e+00 -8.5705077648e-01 -1.2972480059e-01
-1.9711327553e+00 -8.4496092796e-01 -1.2972466648e-01
-1.9863475561e+00 -8.0853515863e-01 -1.2972435355e-01
-1.9912792444e+00 -7.9632812738e-01 -1.2972429395e-01
-2.0008983612e+00 -7.7183592319e-01 -1.2972421944e-01
-2.0147557259e+00 -7.3488277197e-01 -1.2972426414e-01
-2.0404589176e+00 -6.6023433208e-01 -1.2972487509e-01
-2.0866308212e+00 -4.9556639791e-01 -1.2972861528e-01
-2.0896484852e+00 -4.8275390267e-01 -1.2972903252e-01
-2.0954296589e+00 -4.5707029104e-01 -1.2972994149e-01
-2.1008887291e+00 -4.3132811785e-01 -1.2973092496e-01
-2.1035058498e+00 -4.1841796041e-01 -1.2973144650e-01
-2.1060447693e+00 -4.0550780296e-01 -1.2973199785e-01
-2.1108789444e+00 -3.7964841723e-01 -1.2973313034e-01
-2.1196093559e+00 -3.2773438096e-01 -1.2973563373e-01
-2.1234862804e+00 -3.0169922113e-01 -1.2973700464e-01
-2.1287109852e+00 -2.6255857944e-01 -1.2973921001e-01
-2.1303026676e+00 -2.4949218333e-01 -1.2973998487e-01
-2.1317968369e+00 -2.3642577231e-01 -1.2974077463e-01
-2.1381249428e+00 -1.7091795802e-01 -1.2974500656e-01
-2.1391406059e+00 -1.5781249106e-01 -1.2974591553e-01
-2.1400780678e+00 -1.4468750358e-01 -1.2974683940e-01
-2.1409471035e+00 -1.3154296577e-01 -1.2974777818e-01
-2.1417381763e+00 -1.1839843541e-01 -1.2974873185e-01
-2.1430566311e+00 -9.2109374702e-02 -1.2975071371e-01
-2.1435937881e+00 -7.8964844346e-02 -1.2975172698e-01
-2.1440625191e+00 -6.5820313990e-02 -1.2975275517e-01
-2.1444432735e+00 -5.2656248212e-02 -1.2975381315e-01
-2.1447362900e+00 -3.9492186159e-02 -1.2975488603e-01
-1.6548730135e+00 1.0156249627e-02 -1.2987084687e-01
-1.6547851562e+00 2.0312499255e-02 -1.2987174094e-01
-1.6538378000e+00 6.0917966068e-02 -1.2987548113e-01
-1.6534472704e+00 7.1054689586e-02 -1.2987644970e-01
-1.6529979706e+00 8.1210933626e-02 -1.2987743318e-01
-1.6518944502e+00 1.0148437321e-01 -1.2987942994e-01
-1.6512597799e+00 1.1162108928e-01 -1.2988045812e-01
-1.6489647627e+00 1.4199218154e-01 -1.2988361716e-01
-1.6471288204e+00 1.6222655773e-01 -1.2988577783e-01
-1.6461132765e+00 1.7232421041e-01 -1.2988689542e-01
-1.6450390816e+00 1.8242187798e-01 -1.2988801301e-01
-1.6426953077e+00 2.0259764791e-01 -1.2989029288e-01
-1.6357811689e+00 2.5291013718e-01 -1.2989622355e-01
-1.6342186928e+00 2.6294919848e-01 -1.2989746034e-01
-1.6325879097e+00 2.7296873927e-01 -1.2989869714e-01
-1.6254589558e+00 3.1296873093e-01 -1.2990377843e-01
-1.6215331554e+00 3.3289062977e-01 -1.2990640104e-01
-1.6194726229e+00 3.4285154939e-01 -1.2990774214e-01
-1.6173534393e+00 3.5277342796e-01 -1.2990908325e-01
-1.6129393578e+00 3.7261718512e-01 -1.2991181016e-01
-1.6106444597e+00 3.8249999285e-01 -1.2991318107e-01
-1.6082812548e+00 3.9238280058e-01 -1.2991458178e-01
-1.5955761671e+00 4.4156250358e-01 -1.2992173433e-01
-1.5928515196e+00 4.5134764910e-01 -1.2992320955e-01
-1.5900781155e+00 4.6111327410e-01 -1.2992468476e-01
-1.5843359232e+00 4.8060545325e-01 -1.2992767990e-01
-1.5813769102e+00 4.9031248689e-01 -1.2992919981e-01
-1.5689355135e+00 5.2900391817e-01 -1.2993538380e-01
-1.5656836033e+00 5.3863281012e-01 -1.2993696332e-01
-1.5623730421e+00 5.4824215174e-01 -1.2993855774e-01
-1.5589940548e+00 5.5781251192e-01 -1.2994013727e-01
-1.5555664301e+00 5.6738281250e-01 -1.2994176149e-01
-1.5520702600e+00 5.7691407204e-01 -1.2994338572e-01
-1.5485253334e+00 5.8644527197e-01 -1.2994502485e-01
-1.5260058641e+00 6.4308589697e-01 -1.2995505333e-01
-1.5180370808e+00 6.6177731752e-01 -1.2995849550e-01
-1.5098437071e+00 6.8039059639e-01 -1.2996196747e-01
-1.5056542158e+00 6.8964844942e-01 -1.2996372581e-01
-1.4927636385e+00 7.1726560593e-01 -1.2996906042e-01
-1.4883593321e+00 7.2642576694e-01 -1.2997084856e-01
-1.4654785395e+00 7.7179688215e-01 -1.2998001277e-01
-1.4510838985e+00 7.9867184162e-01 -1.2998561561e-01
-1.4461816549e+00 8.0757808685e-01 -1.2998750806e-01
-1.4156054258e+00 8.6033201218e-01 -1.2999904156e-01
-1.4103221893e+00 8.6902344227e-01 -1.3000099361e-01
-1.4049804211e+00 8.7767577171e-01 -1.3000297546e-01
-1.3995897770e+00 8.8628906012e-01 -1.3000494242e-01
-1.3941503763e+00 8.9486324787e-01 -1.3000692427e-01
-1.3886523247e+00 9.0341794491e-01 -1.3000892103e-01
-1.3831053972e+00 9.1193360090e-01 -1.3001093268e-01
-1.3603905439e+00 9.4566404819e-01 -1.3001902401e-01
-1.3487304449e+00 9.6232420206e-01 -1.3002312183e-01
-1.3428221941e+00 9.7058594227e-01 -1.3002517819e-01
-1.3186815977e+00 1.0033007860e+00 -1.3003352284e-01
-1.3125195503e+00 1.0113867521e+00 -1.3003562391e-01
-1.2937499285e+00 1.0354297161e+00 -1.3004200161e-01
-1.2873924971e+00 1.0433593988e+00 -1.3004411757e-01
-1.2809863091e+00 1.0512695312e+00 -1.3004627824e-01
-1.2745312452e+00 1.0591210127e+00 -1.3004842401e-01
-1.2680273056e+00 1.0669335127e+00 -1.3005058467e-01
-1.2614843845e+00 1.0747070312e+00 -1.3005274534e-01
-1.2548828125e+00 1.0824608803e+00 -1.3005493581e-01
-1.2482421398e+00 1.0901561975e+00 -1.3005709648e-01
-1.2211914062e+00 1.1205272675e+00 -1.3006590307e-01
-1.2073925734e+00 1.1354687214e+00 -1.3007034361e-01
-1.2004199028e+00 1.1428710222e+00 -1.3007257879e-01
-1.1934081316e+00 1.1502343416e+00 -1.3007481396e-01
-1.1720898151e+00 1.1720702648e+00 -1.3008154929e-01
-1.1576561928e+00 1.1864062548e+00 -1.3008609414e-01
-1.1503710747e+00 1.1935155392e+00 -1.3008835912e-01
-1.1282714605e+00 1.2145507336e+00 -1.3009522855e-01
-1.1208105087e+00 1.2214648724e+00 -1.3009752333e-01
-1.0905761719e+00 1.2487108707e+00 -1.3010677695e-01
-1.0829199553e+00 1.2553906441e+00 -1.3010910153e-01
-1.0518554449e+00 1.2816796303e+00 -1.3011845946e-01
-1.0439940691e+00 1.2881444693e+00 -1.3012081385e-01
-1.0360839367e+00 1.2945507765e+00 -1.3012316823e-01
-1.0201562643e+00 1.3072069883e+00 -1.3012790680e-01
-1.0121386051e+00 1.3134570122e+00 -1.3013027608e-01
-1.0040721893e+00 1.3196679354e+00 -1.3013264537e-01
-9.7146481276e-01 1.3440234661e+00 -1.3014219701e-01
-9.5493161678e-01 1.3558983803e+00 -1.3014698029e-01
-9.4661128521e-01 1.3617577553e+00 -1.3014939427e-01
-9.3825191259e-01 1.3675585985e+00 -1.3015179336e-01
-9.0447264910e-01 1.3902734518e+00 -1.3016146421e-01
-8.7877929211e-01 1.4067578316e+00 -1.3016875088e-01
-8.6148434877e-01 1.4175000191e+00 -1.3017362356e-01
-8.1767576933e-01 1.4433983564e+00 -1.3018584251e-01
-7.9101562500e-01 1.4582811594e+00 -1.3019321859e-01
-7.8207027912e-01 1.4631445408e+00 -1.3019567728e-01
-7.6408201456e-01 1.4726758003e+00 -1.3020060956e-01
-7.1861326694e-01 1.4955663681e+00 -1.3021294773e-01
-6.9100582600e-01 1.5086327791e+00 -1.3022036850e-01
-6.8174803257e-01 1.5128710270e+00 -1.3022285700e-01
-6.7246091366e-01 1.5170507431e+00 -1.3022533059e-01
-6.4446288347e-01 1.5292577744e+00 -1.3023276627e-01
-6.2567383051e-01 1.5371093750e+00 -1.3023774326e-01
-5.7828122377e-01 1.5557421446e+00 -1.3025014102e-01
-5.3034180403e-01 1.5728906393e+00 -1.3026256859e-01
-5.2069336176e-01 1.5761523247e+00 -1.3026504219e-01
-5.1102536917e-01 1.5793359280e+00 -1.3026751578e-01
-4.7214841843e-01 1.5915234089e+00 -1.3027743995e-01
-4.5259764791e-01 1.5972656012e+00 -1.3028240204e-01
-4.4279295206e-01 1.6000390053e+00 -1.3028487563e-01
-4.1329100728e-01 1.6080077887e+00 -1.3029228151e-01
-4.0342772007e-01 1.6105468273e+00 -1.3029475510e-01
-3.9354491234e-01 1.6130273342e+00 -1.3029721379e-01
-3.5386717319e-01 1.6223046780e+00 -1.3030706346e-01
-3.4391599894e-01 1.6244726181e+00 -1.3030952215e-01
-3.3394530416e-01 1.6265820265e+00 -1.3031198084e-01
-3.2396483421e-01 1.6286327839e+00 -1.3031443954e-01
-2.8391599655e-01 1.6362109184e+00 -1.3032421470e-01
-2.7387693524e-01 1.6379492283e+00 -1.3032665849e-01
-2.6382812858e-01 1.6396288872e+00 -1.3032908738e-01
-2.5376951694e-01 1.6412500143e+00 -1.3033151627e-01
-2.3361328244e-01 1.6443163157e+00 -1.3033638895e-01
-2.2351561487e-01 1.6457421780e+00 -1.3033880293e-01
-1.9319336116e-01 1.6496679783e+00 -1.3034605980e-01
-1.8307617307e-01 1.6508593559e+00 -1.3034847379e-01
-1.6280272603e-01 1.6530468464e+00 -1.3035327196e-01
-1.5266601741e-01 1.6540429592e+00 -1.3035568595e-01
-1.4250975847e-01 1.6549804211e+00 -1.3035807014e-01
-1.3235351443e-01 1.6558398008e+00 -1.3036046922e-01
-1.0186523199e-01 1.6580859423e+00 -1.3036760688e-01
-9.1689452529e-02 1.6587109566e+00 -1.3036999106e-01
-8.1513673067e-02 1.6592773199e+00 -1.3037234545e-01
-6.1142574996e-02 1.6602147818e+00 -1.3037706912e-01
-4.0771484375e-02 1.6608984470e+00 -1.3038177788e-01
-2.0380858332e-02 1.6613280773e+00 -1.3038645685e-01
-1.0185546242e-02 1.6614648104e+00 -1.3038879633e-01
1.0195312090e-02 1.6615233421e+00 -1.3039344549e-01
3.0585937202e-02 1.6613280773e+00 -1.3039807975e-01
6.1171874404e-02 1.6605663300e+00 -1.3040497899e-01
7.1357421577e-02 1.6601952314e+00 -1.3040727377e-01
1.2226562202e-01 1.6573632956e+00 -1.3041862845e-01
1.3243164122e-01 1.6566210985e+00 -1.3042087853e-01
1.4259766042e-01 1.6558007002e+00 -1.3042312860e-01
1.5275390446e-01 1.6549218893e+00 -1.3042536378e-01
1.7305663228e-01 1.6529881954e+00 -1.3042983413e-01
1.8320311606e-01 1.6519140005e+00 -1.3043205440e-01
2.3380859196e-01 1.6456639767e+00 -1.3044303656e-01
2.4389648438e-01 1.6442186832e+00 -1.3044521213e-01
2.6406249404e-01 1.6411718130e+00 -1.3044954836e-01
2.7413085103e-01 1.6395312548e+00 -1.3045169413e-01
2.8418943286e-01 1.6378514767e+00 -1.3045385480e-01
3.2432615757e-01 1.6304882765e+00 -1.3046236336e-01
3.3432617784e-01 1.6284960508e+00 -1.3046446443e-01
3.4431639314e-01 1.6264452934e+00 -1.3046656549e-01
3.5429686308e-01 1.6243163347e+00 -1.3046865165e-01
3.6425781250e-01 1.6221483946e+00 -1.3047073781e-01
3.7421873212e-01 1.6199022532e+00 -1.3047280908e-01
3.9408200979e-01 1.6152539253e+00 -1.3047693670e-01
4.2375975847e-01 1.6077929735e+00 -1.3048304617e-01
4.3362304568e-01 1.6051952839e+00 -1.3048507273e-01
4.4347655773e-01 1.6025195122e+00 -1.3048709929e-01
4.5330077410e-01 1.5997850895e+00 -1.3048909605e-01
4.6312499046e-01 1.5970116854e+00 -1.3049109280e-01
4.7291991115e-01 1.5941600800e+00 -1.3049307466e-01
4.8269531131e-01 1.5912499428e+00 -1.3049505651e-01
5.0220704079e-01 1.5852538347e+00 -1.3049897552e-01
5.1192378998e-01 1.5821679831e+00 -1.3050092757e-01
5.2163082361e-01 1.5790233612e+00 -1.3050286472e-01
5.3131836653e-01 1.5758203268e+00 -1.3050480187e-01
5.4098629951e-01 1.5725585222e+00 -1.3050672412e-01
5.5063474178e-01 1.5692187548e+00 -1.3050863147e-01
5.6987303495e-01 1.5624023676e+00 -1.3051243126e-01
5.7945311069e-01 1.5588866472e+00 -1.3051430881e-01
5.9855467081e-01 1.5516796112e+00 -1.3051803410e-01
6.1756837368e-01 1.5442773104e+00 -1.3052172959e-01
6.3649410009e-01 1.5366210938e+00 -1.3052538037e-01
6.4591795206e-01 1.5326952934e+00 -1.3052718341e-01
6.6469722986e-01 1.5247069597e+00 -1.3053077459e-01
6.7405271530e-01 1.5206249952e+00 -1.3053254783e-01
