VERSION 0.7
FIELDS x y z
SIZE 4 4 4
TYPE F F F
COUNT 1 1 1
WIDTH 905
HEIGHT 1
VIEWPOINT 0.0 0.0 0.0 1.0 0.0 0.0 0.0
POINTS 905
DATA ascii
-6.8740233779e-02 8.5990232229e-01 -1.3030599058e-01
-5.2900388837e-02 8.6103510857e-01 -1.3030970097e-01
-3.7041015923e-02 8.6189448833e-01 -1.3031339645e-01
-1.5878906474e-02 8.6257809401e-01 -1.3031826913e-01
-1.0585937649e-02 8.6267578602e-01 -1.3031949103e-01
0.0000000000e+00 8.6275386810e-01 -1.3032190502e-01
5.2929688245e-03 8.6273437738e-01 -1.3032312691e-01
1.0585937649e-02 8.6269527674e-01 -1.3032431901e-01
1.5878906474e-02 8.6263668537e-01 -1.3032552600e-01
2.1171875298e-02 8.6251950264e-01 -1.3032671809e-01
2.6464842260e-02 8.6238276958e-01 -1.3032791018e-01
3.1757812947e-02 8.6220699549e-01 -1.3032910228e-01
3.7050779909e-02 8.6201167107e-01 -1.3033029437e-01
4.2343750596e-02 8.6177730560e-01 -1.3033147156e-01
4.7626953572e-02 8.6150389910e-01 -1.3033266366e-01
5.2910156548e-02 8.6121094227e-01 -1.3033384085e-01
5.8193359524e-02 8.6087888479e-01 -1.3033501804e-01
6.3476562500e-02 8.6050778627e-01 -1.3033618033e-01
9.5117188990e-02 8.5763669014e-01 -1.3034315407e-01
1.0037109256e-01 8.5705077648e-01 -1.3034428656e-01
1.0563476384e-01 8.5642576218e-01 -1.3034543395e-01
1.1088866740e-01 8.5576170683e-01 -1.3034658134e-01
1.1613281071e-01 8.5507810116e-01 -1.3034771383e-01
1.2137695402e-01 8.5435545444e-01 -1.3034884632e-01
1.5275390446e-01 8.4935545921e-01 -1.3035556674e-01
1.6316406429e-01 8.4742188454e-01 -1.3035777211e-01
1.6836914420e-01 8.4640622139e-01 -1.3035887480e-01
1.7874023318e-01 8.4429687262e-01 -1.3036105037e-01
1.9425781071e-01 8.4087890387e-01 -1.3036428392e-01
2.0457030833e-01 8.3845698833e-01 -1.3036642969e-01
2.1997070312e-01 8.3457028866e-01 -1.3036960363e-01
2.2508788109e-01 8.3320307732e-01 -1.3037064672e-01
2.3530273139e-01 8.3039063215e-01 -1.3037274778e-01
2.6572266221e-01 8.2121092081e-01 -1.3037887216e-01
2.7578124404e-01 8.1791013479e-01 -1.3038088381e-01
2.8580078483e-01 8.1447261572e-01 -1.3038286567e-01
2.9079100490e-01 8.1271481514e-01 -1.3038384914e-01
3.0571287870e-01 8.0724608898e-01 -1.3038678467e-01
3.1066405773e-01 8.0535155535e-01 -1.3038773835e-01
3.2052734494e-01 8.0148434639e-01 -1.3038966060e-01
3.2543945312e-01 7.9951173067e-01 -1.3039061427e-01
3.3034178615e-01 7.9749995470e-01 -1.3039155304e-01
3.3523437381e-01 7.9546874762e-01 -1.3039249182e-01
3.4010741115e-01 7.9339843988e-01 -1.3039343059e-01
3.5949218273e-01 7.8484374285e-01 -1.3039709628e-01
3.6429685354e-01 7.8263670206e-01 -1.3039800525e-01
3.6910155416e-01 7.8039062023e-01 -1.3039889932e-01
3.7387695909e-01 7.7810543776e-01 -1.3039979339e-01
3.7865233421e-01 7.7580076456e-01 -1.3040068746e-01
3.8340818882e-01 7.7347654104e-01 -1.3040156662e-01
3.8814452291e-01 7.7111327648e-01 -1.3040243089e-01
4.0228515863e-01 7.6384764910e-01 -1.3040503860e-01
4.0697264671e-01 7.6136714220e-01 -1.3040588796e-01
4.1163083911e-01 7.5886714458e-01 -1.3040672243e-01
4.1628906131e-01 7.5632810593e-01 -1.3040757179e-01
4.3014648557e-01 7.4855464697e-01 -1.3041006029e-01
4.3472656608e-01 7.4591797590e-01 -1.3041086495e-01
4.3930661678e-01 7.4324214458e-01 -1.3041168451e-01
4.5291990042e-01 7.3503905535e-01 -1.3041406870e-01
4.5742186904e-01 7.3224610090e-01 -1.3041485846e-01
4.7526365519e-01 7.2082030773e-01 -1.3041792810e-01
4.9282225966e-01 7.0894527435e-01 -1.3042090833e-01
5.0149410963e-01 7.0285153389e-01 -1.3042235374e-01
5.0580078363e-01 6.9976562262e-01 -1.3042306900e-01
5.1435548067e-01 6.9351559877e-01 -1.3042448461e-01
5.2283203602e-01 6.8716794252e-01 -1.3042585552e-01
5.2704101801e-01 6.8394529819e-01 -1.3042654097e-01
5.3954100609e-01 6.7414063215e-01 -1.3042853773e-01
5.4367184639e-01 6.7082029581e-01 -1.3042919338e-01
5.4777342081e-01 6.6748046875e-01 -1.3042984903e-01
5.5186522007e-01 6.6410154104e-01 -1.3043048978e-01
5.5592769384e-01 6.6070312262e-01 -1.3043111563e-01
5.6400388479e-01 6.5384763479e-01 -1.3043236732e-01
5.6800782681e-01 6.5037107468e-01 -1.3043297827e-01
5.8380860090e-01 6.3624995947e-01 -1.3043534756e-01
5.9158200026e-01 6.2902343273e-01 -1.3043650985e-01
5.9542965889e-01 6.2539058924e-01 -1.3043706119e-01
5.9925782681e-01 6.2171876431e-01 -1.3043761253e-01
6.0306638479e-01 6.1804687977e-01 -1.3043816388e-01
6.0684567690e-01 6.1433589458e-01 -1.3043870032e-01
6.2174803019e-01 5.9925782681e-01 -1.3044080138e-01
6.2541991472e-01 5.9542965889e-01 -1.3044129312e-01
6.3268554211e-01 5.8771485090e-01 -1.3044229150e-01
6.3627928495e-01 5.8382809162e-01 -1.3044276834e-01
6.3985347748e-01 5.7992184162e-01 -1.3044324517e-01
6.4340817928e-01 5.7597655058e-01 -1.3044370711e-01
6.4692384005e-01 5.7203125954e-01 -1.3044416904e-01
6.5042966604e-01 5.6804686785e-01 -1.3044463098e-01
6.5735352039e-01 5.6001949310e-01 -1.3044551015e-01
6.6755855083e-01 5.4783201218e-01 -1.3044677675e-01
6.7090821266e-01 5.4373043776e-01 -1.3044717908e-01
6.7423826456e-01 5.3960937262e-01 -1.3044758141e-01
6.7752927542e-01 5.3546875715e-01 -1.3044796884e-01
6.8406248093e-01 5.2710938454e-01 -1.3044874370e-01
6.8728512526e-01 5.2291011810e-01 -1.3044911623e-01
6.9365233183e-01 5.1443356276e-01 -1.3044983149e-01
6.9679683447e-01 5.1017576456e-01 -1.3045017421e-01
6.9991207123e-01 5.0587886572e-01 -1.3045051694e-01
7.0300781727e-01 5.0158202648e-01 -1.3045085967e-01
7.0912104845e-01 4.9292966723e-01 -1.3045150042e-01
7.1212887764e-01 4.8855468631e-01 -1.3045179844e-01
7.1511715651e-01 4.8417967558e-01 -1.3045211136e-01
7.1807616949e-01 4.7978514433e-01 -1.3045239449e-01
7.2391599417e-01 4.7093749046e-01 -1.3045296073e-01
7.2963863611e-01 4.6203124523e-01 -1.3045349717e-01
7.3246091604e-01 4.5753905177e-01 -1.3045375049e-01
7.3802733421e-01 4.4851562381e-01 -1.3045422733e-01
7.4076169729e-01 4.4398435950e-01 -1.3045446575e-01
7.4881833792e-01 4.3027341366e-01 -1.3045510650e-01
7.5144529343e-01 4.2568358779e-01 -1.3045531511e-01
7.5661128759e-01 4.1642576456e-01 -1.3045568764e-01
7.5915038586e-01 4.1177734733e-01 -1.3045586646e-01
7.6166993380e-01 4.0710937977e-01 -1.3045603037e-01
7.7379882336e-01 3.8355466723e-01 -1.3045676053e-01
7.7614253759e-01 3.7880858779e-01 -1.3045687973e-01
7.7845698595e-01 3.7402343750e-01 -1.3045699894e-01
7.8073239326e-01 3.6923828721e-01 -1.3045710325e-01
7.8298825026e-01 3.6445310712e-01 -1.3045719266e-01
7.8520506620e-01 3.5964843631e-01 -1.3045728207e-01
7.8740233183e-01 3.5480466485e-01 -1.3045737147e-01
7.9169923067e-01 3.4511718154e-01 -1.3045750558e-01
7.9379880428e-01 3.4025388956e-01 -1.3045756519e-01
7.9791992903e-01 3.3048826456e-01 -1.3045765460e-01
7.9993164539e-01 3.2558593154e-01 -1.3045769930e-01
8.0191403627e-01 3.2068359852e-01 -1.3045772910e-01
8.0386716127e-01 3.1576171517e-01 -1.3045774400e-01
8.0579102039e-01 3.1082031131e-01 -1.3045774400e-01
8.0954098701e-01 3.0089843273e-01 -1.3045774400e-01
8.1317383051e-01 2.9093748331e-01 -1.3045771420e-01
8.2333004475e-01 2.6082029939e-01 -1.3045741618e-01
8.3237302303e-01 2.3033203185e-01 -1.3045683503e-01
8.3376950026e-01 2.2521483898e-01 -1.3045671582e-01
8.3513671160e-01 2.2009764612e-01 -1.3045658171e-01
8.3904296160e-01 2.0468749106e-01 -1.3045613468e-01
8.4028315544e-01 1.9955077767e-01 -1.3045597076e-01
8.4147459269e-01 1.9437499344e-01 -1.3045579195e-01
8.4265625477e-01 1.8921874464e-01 -1.3045561314e-01
8.4379881620e-01 1.8404296041e-01 -1.3045541942e-01
8.4491211176e-01 1.7886717618e-01 -1.3045524061e-01
8.4598630667e-01 1.7367187142e-01 -1.3045501709e-01
8.4999018908e-01 1.5285155177e-01 -1.3045413792e-01
8.5265624523e-01 1.3718749583e-01 -1.3045337796e-01
8.5348629951e-01 1.3195312023e-01 -1.3045312464e-01
8.5503906012e-01 1.2146484107e-01 -1.3045257330e-01
8.5576170683e-01 1.1621093750e-01 -1.3045227528e-01
8.5645508766e-01 1.1095702648e-01 -1.3045197725e-01
8.5834956169e-01 9.5175780356e-02 -1.3045105338e-01
8.5891598463e-01 8.9902341366e-02 -1.3045072556e-01
8.5945308208e-01 8.4628902376e-02 -1.3045038283e-01
8.6041992903e-01 7.4082031846e-02 -1.3044969738e-01
8.6163085699e-01 5.8242186904e-02 -1.3044859469e-01
8.6279296875e-01 3.7070311606e-02 -1.3044701517e-01
8.6299800873e-01 3.1777344644e-02 -1.3044661283e-01
8.6332029104e-01 2.1191405132e-02 -1.3044576347e-01
8.6356443167e-01 -1.9531249563e-05 -1.3044399023e-01
8.6354488134e-01 -5.3125000559e-03 -1.3044352829e-01
8.6340820789e-01 -1.5898436308e-02 -1.3044257462e-01
8.6329102516e-01 -2.1210936829e-02 -1.3044208288e-01
8.6314451694e-01 -2.6503905654e-02 -1.3044159114e-01
8.6295896769e-01 -3.1796872616e-02 -1.3044108450e-01
8.6274409294e-01 -3.7089843303e-02 -1.3044057786e-01
8.6222654581e-01 -4.7675780952e-02 -1.3043954968e-01
8.6119139194e-01 -6.3535153866e-02 -1.3043794036e-01
8.6078125238e-01 -6.8808592856e-02 -1.3043738902e-01
8.6033201218e-01 -7.4101559818e-02 -1.3043682277e-01
8.5986328125e-01 -7.9374998808e-02 -1.3043627143e-01
8.5881835222e-01 -8.9921869338e-02 -1.3043510914e-01
8.5824215412e-01 -9.5195308328e-02 -1.3043451309e-01
8.5763669014e-01 -1.0044921935e-01 -1.3043393195e-01
8.5700196028e-01 -1.0570312291e-01 -1.3043332100e-01
8.5633784533e-01 -1.1097656190e-01 -1.3043272495e-01
8.5563474894e-01 -1.1621093750e-01 -1.3043211401e-01
8.5333985090e-01 -1.3195312023e-01 -1.3043022156e-01
8.5075193644e-01 -1.4763671160e-01 -1.3042826951e-01
8.4982419014e-01 -1.5285155177e-01 -1.3042759895e-01
8.4788084030e-01 -1.6326171160e-01 -1.3042625785e-01
8.4685546160e-01 -1.6845703125e-01 -1.3042558730e-01
8.4580075741e-01 -1.7365233600e-01 -1.3042488694e-01
8.4360349178e-01 -1.8402343988e-01 -1.3042350113e-01
8.3880859613e-01 -2.0466797054e-01 -1.3042061031e-01
8.3623045683e-01 -2.1494139731e-01 -1.3041912019e-01
8.2772457600e-01 -2.4556639791e-01 -1.3041454554e-01
8.2619136572e-01 -2.5062498450e-01 -1.3041375577e-01
8.2463866472e-01 -2.5570312142e-01 -1.3041295111e-01
8.2304686308e-01 -2.6074218750e-01 -1.3041216135e-01
8.1977534294e-01 -2.7082031965e-01 -1.3041053712e-01
8.1809568405e-01 -2.7585935593e-01 -1.3040971756e-01
8.1462889910e-01 -2.8585937619e-01 -1.3040806353e-01
8.1285154819e-01 -2.9085937142e-01 -1.3040722907e-01
7.9551756382e-01 -3.3525389433e-01 -1.3039943576e-01
7.9132813215e-01 -3.4499999881e-01 -1.3039763272e-01
7.8260737658e-01 -3.6429685354e-01 -1.3039396703e-01
7.7805662155e-01 -3.7386718392e-01 -1.3039210439e-01
7.7575194836e-01 -3.7863281369e-01 -1.3039116561e-01
7.7340817451e-01 -3.8337889314e-01 -1.3039022684e-01
7.7103513479e-01 -3.8812500238e-01 -1.3038927317e-01
7.6620113850e-01 -3.9753904939e-01 -1.3038735092e-01
7.6374024153e-01 -4.0222656727e-01 -1.3038638234e-01
7.5874024630e-01 -4.1156250238e-01 -1.3038443029e-01
7.5101560354e-01 -4.2544922233e-01 -1.3038146496e-01
7.4303710461e-01 -4.3919920921e-01 -1.3037845492e-01
7.4032223225e-01 -4.4374999404e-01 -1.3037744164e-01
7.3758786917e-01 -4.4828122854e-01 -1.3037642837e-01
7.3481446505e-01 -4.5279297233e-01 -1.3037540019e-01
7.3202145100e-01 -4.5728513598e-01 -1.3037438691e-01
7.2918945551e-01 -4.6177732944e-01 -1.3037334383e-01
7.2345703840e-01 -4.7068357468e-01 -1.3037127256e-01
7.2054684162e-01 -4.7509765625e-01 -1.3037022948e-01
7.1761715412e-01 -4.7951170802e-01 -1.3036917150e-01
7.1465820074e-01 -4.8390623927e-01 -1.3036811352e-01
7.1166992188e-01 -4.8828125000e-01 -1.3036705554e-01
6.9944334030e-01 -5.0556641817e-01 -1.3036277890e-01
6.9632810354e-01 -5.0984376669e-01 -1.3036169112e-01
6.9000977278e-01 -5.1835936308e-01 -1.3035951555e-01
6.7706054449e-01 -5.3511714935e-01 -1.3035510480e-01
6.7375975847e-01 -5.3925782442e-01 -1.3035400212e-01
6.7042964697e-01 -5.4335933924e-01 -1.3035288453e-01
6.6370117664e-01 -5.5154293776e-01 -1.3035064936e-01
6.5341794491e-01 -5.6365233660e-01 -1.3034725189e-01
6.4643555880e-01 -5.7162106037e-01 -1.3034497201e-01
6.3579100370e-01 -5.8339840174e-01 -1.3034151495e-01
6.3219726086e-01 -5.8728516102e-01 -1.3034036756e-01
6.2857419252e-01 -5.9115231037e-01 -1.3033920527e-01
6.2493163347e-01 -5.9499996901e-01 -1.3033804297e-01
6.1385738850e-01 -6.0638672113e-01 -1.3033452630e-01
6.1011719704e-01 -6.1013668776e-01 -1.3033334911e-01
6.0635739565e-01 -6.1386716366e-01 -1.3033217192e-01
6.0257810354e-01 -6.1755859852e-01 -1.3033099473e-01
5.9876954556e-01 -6.2124997377e-01 -1.3032980263e-01
5.9494137764e-01 -6.2490230799e-01 -1.3032861054e-01
5.9108394384e-01 -6.2851560116e-01 -1.3032741845e-01
5.8721679449e-01 -6.3212889433e-01 -1.3032622635e-01
5.7150387764e-01 -6.4630860090e-01 -1.3032141328e-01
5.5949217081e-01 -6.5671873093e-01 -1.3031777740e-01
5.5544918776e-01 -6.6011714935e-01 -1.3031655550e-01
5.4729491472e-01 -6.6687500477e-01 -1.3031411171e-01
5.2235352993e-01 -6.8652343750e-01 -1.3030672073e-01
5.0960934162e-01 -6.9601559639e-01 -1.3030299544e-01
5.0102537870e-01 -7.0220702887e-01 -1.3030050695e-01
4.9236327410e-01 -7.0828121901e-01 -1.3029800355e-01
4.8799803853e-01 -7.1128904819e-01 -1.3029675186e-01
4.6146482229e-01 -7.2871094942e-01 -1.3028918207e-01
4.5698240399e-01 -7.3152339458e-01 -1.3028793037e-01
4.5247069001e-01 -7.3431640863e-01 -1.3028664887e-01
4.3887695670e-01 -7.4250000715e-01 -1.3028284907e-01
4.3430662155e-01 -7.4517577887e-01 -1.3028158247e-01
4.2971679568e-01 -7.4781250954e-01 -1.3028030097e-01
4.2511716485e-01 -7.5042968988e-01 -1.3027901947e-01
4.0655273199e-01 -7.6060545444e-01 -1.3027390838e-01
3.9718750119e-01 -7.6552730799e-01 -1.3027136028e-01
3.9246094227e-01 -7.6792967319e-01 -1.3027006388e-01
3.8774412870e-01 -7.7033203840e-01 -1.3026879728e-01
3.8300779462e-01 -7.7267575264e-01 -1.3026750088e-01
3.7825194001e-01 -7.7499997616e-01 -1.3026621938e-01
3.6871093512e-01 -7.7957028151e-01 -1.3026365638e-01
3.6391600966e-01 -7.8181636333e-01 -1.3026235998e-01
3.5428708792e-01 -7.8621089458e-01 -1.3025978208e-01
3.4459960461e-01 -7.9048824310e-01 -1.3025720417e-01
3.2508787513e-01 -7.9867184162e-01 -1.3025204837e-01
3.2017576694e-01 -8.0064451694e-01 -1.3025075197e-01
3.1525391340e-01 -8.0257809162e-01 -1.3024947047e-01
3.1032225490e-01 -8.0449217558e-01 -1.3024817407e-01
3.0538085103e-01 -8.0636715889e-01 -1.3024689257e-01
3.0041992664e-01 -8.0822265148e-01 -1.3024559617e-01
2.9047849774e-01 -8.1183594465e-01 -1.3024301827e-01
2.8048828244e-01 -8.1533199549e-01 -1.3024044037e-01
2.5027343631e-01 -8.2503902912e-01 -1.3023270667e-01
2.4012695253e-01 -8.2804685831e-01 -1.3023014367e-01
2.3503905535e-01 -8.2949215174e-01 -1.3022884727e-01
2.2994139791e-01 -8.3089840412e-01 -1.3022756577e-01
2.2483398020e-01 -8.3228516579e-01 -1.3022628427e-01
2.1459960938e-01 -8.3498042822e-01 -1.3022372127e-01
2.0433592796e-01 -8.3751952648e-01 -1.3022115827e-01
1.9918945432e-01 -8.3875000477e-01 -1.3021987677e-01
1.8887694180e-01 -8.4113281965e-01 -1.3021731377e-01
1.8371093273e-01 -8.4226560593e-01 -1.3021604717e-01
1.7853514850e-01 -8.4335935116e-01 -1.3021478057e-01
1.7335936427e-01 -8.4443354607e-01 -1.3021349907e-01
1.5778319538e-01 -8.4746092558e-01 -1.3020968437e-01
1.4736327529e-01 -8.4931635857e-01 -1.3020715117e-01
1.4214843512e-01 -8.5019528866e-01 -1.3020588458e-01
1.3693359494e-01 -8.5103511810e-01 -1.3020463288e-01
1.2647460401e-01 -8.5263669491e-01 -1.3020209968e-01
1.2124022841e-01 -8.5339844227e-01 -1.3020084798e-01
1.1599609256e-01 -8.5412108898e-01 -1.3019959629e-01
1.1075194925e-01 -8.5480469465e-01 -1.3019832969e-01
1.0550781339e-01 -8.5544919968e-01 -1.3019707799e-01
9.4999998808e-02 -8.5666012764e-01 -1.3019458950e-01
8.9736327529e-02 -8.5722655058e-01 -1.3019333780e-01
8.4482416511e-02 -8.5775387287e-01 -1.3019208610e-01
7.9208984971e-02 -8.5824215412e-01 -1.3019084930e-01
7.3945313692e-02 -8.5871094465e-01 -1.3018961251e-01
6.3398435712e-02 -8.5953122377e-01 -1.3018712401e-01
4.7568358481e-02 -8.6052733660e-01 -1.3018344343e-01
4.2285155505e-02 -8.6080074310e-01 -1.3018220663e-01
3.7001952529e-02 -8.6103510857e-01 -1.3018098474e-01
2.6435546577e-02 -8.6140620708e-01 -1.3017854095e-01
1.5859374776e-02 -8.6166012287e-01 -1.3017611206e-01
1.0576171800e-02 -8.6171871424e-01 -1.3017490506e-01
5.2832029760e-03 -8.6177730560e-01 -1.3017368317e-01
-2.1152343601e-02 -8.6148434877e-01 -1.3016769290e-01
-2.6435546577e-02 -8.6132812500e-01 -1.3016650081e-01
-3.7001952529e-02 -8.6091792583e-01 -1.3016413152e-01
-4.2285155505e-02 -8.6068356037e-01 -1.3016293943e-01
-4.7568358481e-02 -8.6039060354e-01 -1.3016176224e-01
-6.3388668001e-02 -8.5935544968e-01 -1.3015824556e-01
-7.3925778270e-02 -8.5849606991e-01 -1.3015592098e-01
-8.9716792107e-02 -8.5697263479e-01 -1.3015244901e-01
-1.0022460669e-01 -8.5578125715e-01 -1.3015016913e-01
-1.1071288586e-01 -8.5447263718e-01 -1.3014788926e-01
-1.1595702916e-01 -8.5376954079e-01 -1.3014674187e-01
-1.2119140476e-01 -8.5302734375e-01 -1.3014562428e-01
-1.3165038824e-01 -8.5146480799e-01 -1.3014337420e-01
-1.3687500358e-01 -8.5064452887e-01 -1.3014224172e-01
-1.4208984375e-01 -8.4978514910e-01 -1.3014113903e-01
-1.6289062798e-01 -8.4599608183e-01 -1.3013672829e-01
-1.7326171696e-01 -8.4392577410e-01 -1.3013453782e-01
-1.7842772603e-01 -8.4285151958e-01 -1.3013345003e-01
-1.8359375000e-01 -8.4171873331e-01 -1.3013237715e-01
-1.8875975907e-01 -8.4056639671e-01 -1.3013130426e-01
-1.9390624762e-01 -8.3939450979e-01 -1.3013023138e-01
-2.0932616293e-01 -8.3566403389e-01 -1.3012704253e-01
-2.1444335580e-01 -8.3435547352e-01 -1.3012598455e-01
-2.2975584865e-01 -8.3025389910e-01 -1.3012285531e-01
-2.3484374583e-01 -8.2880854607e-01 -1.3012181222e-01
-2.4499998987e-01 -8.2585936785e-01 -1.3011975586e-01
-2.5005859137e-01 -8.2433593273e-01 -1.3011872768e-01
-2.5510740280e-01 -8.2277339697e-01 -1.3011771441e-01
-2.6518553495e-01 -8.1957030296e-01 -1.3011570275e-01
-2.7521485090e-01 -8.1624996662e-01 -1.3011370599e-01
-2.8520506620e-01 -8.1279295683e-01 -1.3011172414e-01
-3.0011719465e-01 -8.0738282204e-01 -1.3010878861e-01
-3.0999022722e-01 -8.0363279581e-01 -1.3010686636e-01
-3.3448240161e-01 -7.9371094704e-01 -1.3010214269e-01
-3.4419921041e-01 -7.8955078125e-01 -1.3010028005e-01
-3.5866209865e-01 -7.8306639194e-01 -1.3009755313e-01
-3.6824217439e-01 -7.7859371901e-01 -1.3009576499e-01
-3.7300780416e-01 -7.7630859613e-01 -1.3009487092e-01
-3.8722655177e-01 -7.6927733421e-01 -1.3009223342e-01
-3.9193359017e-01 -7.6687496901e-01 -1.3009138405e-01
-4.0129882097e-01 -7.6201170683e-01 -1.3008965552e-01
-4.2447265983e-01 -7.4931639433e-01 -1.3008546829e-01
-4.3363279104e-01 -7.4404293299e-01 -1.3008384407e-01
-4.3819335103e-01 -7.4134761095e-01 -1.3008303940e-01
-4.4272458553e-01 -7.3865234852e-01 -1.3008223474e-01
-4.5174804330e-01 -7.3314452171e-01 -1.3008065522e-01
-4.6071287990e-01 -7.2753906250e-01 -1.3007910550e-01
-4.8715817928e-01 -7.1007812023e-01 -1.3007459044e-01
-4.9150389433e-01 -7.0707029104e-01 -1.3007386029e-01
-4.9583005905e-01 -7.0402342081e-01 -1.3007313013e-01
-5.0442379713e-01 -6.9789057970e-01 -1.3007171452e-01
-5.0870114565e-01 -6.9476562738e-01 -1.3007101417e-01
-5.1717770100e-01 -6.8847656250e-01 -1.3006961346e-01
-5.2139645815e-01 -6.8527340889e-01 -1.3006894290e-01
-5.2975583076e-01 -6.7882812023e-01 -1.3006758690e-01
-5.3390622139e-01 -6.7556637526e-01 -1.3006693125e-01
-5.4215818644e-01 -6.6894531250e-01 -1.3006561995e-01
-5.4624998569e-01 -6.6560542583e-01 -1.3006496429e-01
-5.5031245947e-01 -6.6224610806e-01 -1.3006433845e-01
-5.5436521769e-01 -6.5884763002e-01 -1.3006371260e-01
-5.6240230799e-01 -6.5199220181e-01 -1.3006247580e-01
-5.7822263241e-01 -6.3796871901e-01 -1.3006007671e-01
-5.9370118380e-01 -6.2359374762e-01 -1.3005779684e-01
-6.0506832600e-01 -6.1253905296e-01 -1.3005617261e-01
-6.0881835222e-01 -6.0880857706e-01 -1.3005563617e-01
-6.1253905296e-01 -6.0505855083e-01 -1.3005511463e-01
-6.1623042822e-01 -6.0128903389e-01 -1.3005459309e-01
-6.1991208792e-01 -5.9749996662e-01 -1.3005408645e-01
-6.3079100847e-01 -5.8597654104e-01 -1.3005259633e-01
-6.3437497616e-01 -5.8208984137e-01 -1.3005211949e-01
-6.4498043060e-01 -5.7031250000e-01 -1.3005073369e-01
-6.4846676588e-01 -5.6634765863e-01 -1.3005027175e-01
-6.5536129475e-01 -5.5833983421e-01 -1.3004939258e-01
-6.6215819120e-01 -5.5025386810e-01 -1.3004854321e-01
-6.7216795683e-01 -5.3796875477e-01 -1.3004733622e-01
-6.8195313215e-01 -5.2550780773e-01 -1.3004618883e-01
-6.8515622616e-01 -5.2130860090e-01 -1.3004581630e-01
-6.9150388241e-01 -5.1285153627e-01 -1.3004510105e-01
-6.9463866949e-01 -5.0859373808e-01 -1.3004475832e-01
-7.0082026720e-01 -5.0003904104e-01 -1.3004408777e-01
-7.0990234613e-01 -4.8705077171e-01 -1.3004313409e-01
-7.1874022484e-01 -4.7390624881e-01 -1.3004226983e-01
-7.2163087130e-01 -4.6947264671e-01 -1.3004200161e-01
-7.2450190783e-01 -4.6503904462e-01 -1.3004173338e-01
-7.2733396292e-01 -4.6058592200e-01 -1.3004146516e-01
-7.3014646769e-01 -4.5611327887e-01 -1.3004121184e-01
-7.3292964697e-01 -4.5162108541e-01 -1.3004097342e-01
-7.3841792345e-01 -4.4259765744e-01 -1.3004049659e-01
-7.4111324549e-01 -4.3804687262e-01 -1.3004027307e-01
-7.4378901720e-01 -4.3349608779e-01 -1.3004006445e-01
-7.4643552303e-01 -4.2892578244e-01 -1.3003985584e-01
-7.4905270338e-01 -4.2433592677e-01 -1.3003966212e-01
-7.5419920683e-01 -4.1511717439e-01 -1.3003927469e-01
-7.5672847033e-01 -4.1046872735e-01 -1.3003911078e-01
-7.5923824310e-01 -4.0582031012e-01 -1.3003894687e-01
-7.6896482706e-01 -3.8707029819e-01 -1.3003835082e-01
-7.7365231514e-01 -3.7759765983e-01 -1.3003811240e-01
-7.7595698833e-01 -3.7285155058e-01 -1.3003797829e-01
-7.7823239565e-01 -3.6808592081e-01 -1.3003787398e-01
-7.8046876192e-01 -3.6330077052e-01 -1.3003778458e-01
-7.8268551826e-01 -3.5849609971e-01 -1.3003769517e-01
-7.8702145815e-01 -3.4886717796e-01 -1.3003754616e-01
-7.9735350609e-01 -3.2455077767e-01 -1.3003729284e-01
-8.0127930641e-01 -3.1474608183e-01 -1.3003724813e-01
-8.0319333076e-01 -3.0982419848e-01 -1.3003723323e-01
-8.0507808924e-01 -3.0490234494e-01 -1.3003723323e-01
-8.0875974894e-01 -2.9499998689e-01 -1.3003726304e-01
-8.1055665016e-01 -2.9001951218e-01 -1.3003727794e-01
-8.1574219465e-01 -2.7505859733e-01 -1.3003739715e-01
-8.1742185354e-01 -2.7003905177e-01 -1.3003744185e-01
-8.2379883528e-01 -2.4990233779e-01 -1.3003773987e-01
-8.2680660486e-01 -2.3978514969e-01 -1.3003791869e-01
-8.2826167345e-01 -2.3470702767e-01 -1.3003802299e-01
-8.2968747616e-01 -2.2960937023e-01 -1.3003815711e-01
-8.3245116472e-01 -2.1941405535e-01 -1.3003839552e-01
-8.3377927542e-01 -2.1429687738e-01 -1.3003854454e-01
-8.3634763956e-01 -2.0406249166e-01 -1.3003884256e-01
-8.3758789301e-01 -1.9892577827e-01 -1.3003900647e-01
-8.4111326933e-01 -1.8347655237e-01 -1.3003954291e-01
-8.4221678972e-01 -1.7830078304e-01 -1.3003973663e-01
-8.4536129236e-01 -1.6277343035e-01 -1.3004036248e-01
-8.4634763002e-01 -1.5757812560e-01 -1.3004060090e-01
-8.4911131859e-01 -1.4197264612e-01 -1.3004131615e-01
-8.4997069836e-01 -1.3675780594e-01 -1.3004158437e-01
-8.5079097748e-01 -1.3154296577e-01 -1.3004183769e-01
-8.5234373808e-01 -1.2109375000e-01 -1.3004238904e-01
-8.5307615995e-01 -1.1585937440e-01 -1.3004267216e-01
-8.5376954079e-01 -1.1062499881e-01 -1.3004297018e-01
-8.5624021292e-01 -8.9648433030e-02 -1.3004422188e-01
-8.5775387287e-01 -7.3867186904e-02 -1.3004525006e-01
-8.5819333792e-01 -6.8613283336e-02 -1.3004560769e-01
-8.5859370232e-01 -6.3339844346e-02 -1.3004596531e-01
-8.5931640863e-01 -5.2792966366e-02 -1.3004671037e-01
-8.5962891579e-01 -4.7519531101e-02 -1.3004709780e-01
-8.5990232229e-01 -4.2246092111e-02 -1.3004750013e-01
-8.6054682732e-01 -2.6406249031e-02 -1.3004873693e-01
-8.6069333553e-01 -2.1132811904e-02 -1.3004915416e-01
-8.6088865995e-01 -1.0566405952e-02 -1.3005001843e-01
-8.6094725132e-01 -5.2929688245e-03 -1.3005046546e-01
-7.6776367426e-01 4.7070309520e-03 -1.3007257879e-01
-7.6765620708e-01 1.4121093787e-02 -1.3007341325e-01
-7.6755857468e-01 1.8847655505e-02 -1.3007384539e-01
-7.6708984375e-01 3.2968748361e-02 -1.3007517159e-01
-7.6687496901e-01 3.7675779313e-02 -1.3007561862e-01
-7.6635742188e-01 4.7070313245e-02 -1.3007655740e-01
-7.6606446505e-01 5.1777344197e-02 -1.3007703424e-01
-7.6537108421e-01 6.1171874404e-02 -1.3007800281e-01
-7.6206052303e-01 9.3984372914e-02 -1.3008160889e-01
-7.6147460938e-01 9.8652340472e-02 -1.3008214533e-01
-7.6085937023e-01 1.0333984345e-01 -1.3008269668e-01
-7.6021480560e-01 1.0800781101e-01 -1.3008324802e-01
-7.5883787870e-01 1.1732421815e-01 -1.3008436561e-01
-7.5810545683e-01 1.2197265029e-01 -1.3008493185e-01
-7.5490230322e-01 1.4054687321e-01 -1.3008727133e-01
-7.5219726562e-01 1.5441405773e-01 -1.3008908927e-01
-7.4489253759e-01 1.8658202887e-01 -1.3009354472e-01
-7.4133789539e-01 2.0027343929e-01 -1.3009554148e-01
-7.4009764194e-01 2.0480468869e-01 -1.3009621203e-01
-7.3882812262e-01 2.0935545862e-01 -1.3009689748e-01
-7.3064452410e-01 2.3640625179e-01 -1.3010109961e-01
-7.2918945551e-01 2.4089843035e-01 -1.3010181487e-01
-7.2770506144e-01 2.4535155296e-01 -1.3010254502e-01
-7.2464841604e-01 2.5427734852e-01 -1.3010402024e-01
-7.2147458792e-01 2.6314452291e-01 -1.3010551035e-01
-7.1985352039e-01 2.6757812500e-01 -1.3010627031e-01
-7.1308594942e-01 2.8517577052e-01 -1.3010933995e-01
-7.1132808924e-01 2.8953123093e-01 -1.3011011481e-01
-7.0773434639e-01 2.9824218154e-01 -1.3011167943e-01
-6.8815428019e-01 3.4111326933e-01 -1.3011986017e-01
-6.8605464697e-01 3.4533202648e-01 -1.3012070954e-01
-6.7958980799e-01 3.5791015625e-01 -1.3012327254e-01
-6.7739254236e-01 3.6207029223e-01 -1.3012412190e-01
-6.7290037870e-01 3.7035155296e-01 -1.3012586534e-01
-6.7062497139e-01 3.7449216843e-01 -1.3012674451e-01
-6.6598629951e-01 3.8269531727e-01 -1.3012851775e-01
-6.6363281012e-01 3.8677734137e-01 -1.3012941182e-01
-6.6124999523e-01 3.9083984494e-01 -1.3013029099e-01
-6.4897459745e-01 4.1095700860e-01 -1.3013485074e-01
-6.4644527435e-01 4.1494140029e-01 -1.3013575971e-01
-6.4130860567e-01 4.2283201218e-01 -1.3013762236e-01
-6.3608396053e-01 4.3068358302e-01 -1.3013948500e-01
-6.2534177303e-01 4.4617187977e-01 -1.3014326990e-01
-6.2259763479e-01 4.5001950860e-01 -1.3014423847e-01
-6.1982423067e-01 4.5382812619e-01 -1.3014520705e-01
-6.1421871185e-01 4.6140623093e-01 -1.3014714420e-01
-6.1138671637e-01 4.6517577767e-01 -1.3014811277e-01
-6.0852539539e-01 4.6890625358e-01 -1.3014908135e-01
-6.0273438692e-01 4.7634765506e-01 -1.3015104830e-01
-5.9980469942e-01 4.8003906012e-01 -1.3015203178e-01
-5.9684568644e-01 4.8373046517e-01 -1.3015303016e-01
-5.9387695789e-01 4.8738279939e-01 -1.3015402853e-01
-5.9087890387e-01 4.9101561308e-01 -1.3015502691e-01
-5.8481442928e-01 4.9824216962e-01 -1.3015702367e-01
-5.8175778389e-01 5.0181639194e-01 -1.3015803695e-01
-5.7555663586e-01 5.0892579556e-01 -1.3016007841e-01
-5.6927734613e-01 5.1595699787e-01 -1.3016210496e-01
-5.6291991472e-01 5.2292966843e-01 -1.3016416132e-01
-5.5969727039e-01 5.2636718750e-01 -1.3016518950e-01
-5.5646485090e-01 5.2980464697e-01 -1.3016623259e-01
-5.4993164539e-01 5.3660154343e-01 -1.3016830385e-01
-5.1603513956e-01 5.6935542822e-01 -1.3017886877e-01
-5.0901365280e-01 5.7564449310e-01 -1.3018101454e-01
-5.0547850132e-01 5.7876950502e-01 -1.3018208742e-01
-5.0192379951e-01 5.8187496662e-01 -1.3018317521e-01
-4.9834960699e-01 5.8494138718e-01 -1.3018426299e-01
-4.9475583434e-01 5.8798825741e-01 -1.3018533587e-01
-4.8750975728e-01 5.9402340651e-01 -1.3018751144e-01
-4.7280272841e-01 6.0583984852e-01 -1.3019189239e-01
-4.6907225251e-01 6.0873043537e-01 -1.3019298017e-01
-4.6158203483e-01 6.1445313692e-01 -1.3019518554e-01
-4.5780271292e-01 6.1728513241e-01 -1.3019630313e-01
-4.5020505786e-01 6.2285155058e-01 -1.3019850850e-01
-4.3867185712e-01 6.3105469942e-01 -1.3020184636e-01
-4.3090820312e-01 6.3640624285e-01 -1.3020408154e-01
-4.2699217796e-01 6.3904297352e-01 -1.3020519912e-01
-4.2306640744e-01 6.4166015387e-01 -1.3020633161e-01
-4.1517576575e-01 6.4681637287e-01 -1.3020856678e-01
-4.0320312977e-01 6.5435546637e-01 -1.3021194935e-01
-3.9110350609e-01 6.6167968512e-01 -1.3021534681e-01
-3.8704100251e-01 6.6408199072e-01 -1.3021647930e-01
-3.8295897841e-01 6.6644531488e-01 -1.3021761179e-01
-3.7886717916e-01 6.6878902912e-01 -1.3021874428e-01
-3.7063476443e-01 6.7337888479e-01 -1.3022102416e-01
-3.6650389433e-01 6.7564451694e-01 -1.3022217155e-01
-3.6235350370e-01 6.7789059877e-01 -1.3022330403e-01
-3.5400390625e-01 6.8230468035e-01 -1.3022558391e-01
-3.4560546279e-01 6.8660151958e-01 -1.3022787869e-01
-3.3716794848e-01 6.9080078602e-01 -1.3023015857e-01
-3.3291992545e-01 6.9287109375e-01 -1.3023130596e-01
-3.2867187262e-01 6.9490230083e-01 -1.3023245335e-01
-3.2440429926e-01 6.9691401720e-01 -1.3023360074e-01
-3.1152343750e-01 7.0279294252e-01 -1.3023704290e-01
-3.0720701814e-01 7.0468747616e-01 -1.3023819029e-01
-2.9854491353e-01 7.0841795206e-01 -1.3024049997e-01
-2.9418945312e-01 7.1025389433e-01 -1.3024163246e-01
-2.7228516340e-01 7.1896481514e-01 -1.3024738431e-01
-2.6787108183e-01 7.2062498331e-01 -1.3024854660e-01
-2.6343747973e-01 7.2226560116e-01 -1.3024969399e-01
-2.5900390744e-01 7.2388672829e-01 -1.3025084138e-01
-2.4564452469e-01 7.2853511572e-01 -1.3025429845e-01
-2.3219725490e-01 7.3296874762e-01 -1.3025774062e-01
-2.1867187321e-01 7.3712891340e-01 -1.3026118279e-01
-2.0961913466e-01 7.3976558447e-01 -1.3026347756e-01
-1.9596679509e-01 7.4351561069e-01 -1.3026690483e-01
-1.9140625000e-01 7.4472653866e-01 -1.3026805222e-01
-1.8683592975e-01 7.4587887526e-01 -1.3026919961e-01
-1.7766600847e-01 7.4814450741e-01 -1.3027149439e-01
-1.7307616770e-01 7.4921876192e-01 -1.3027262688e-01
-1.5001952648e-01 7.5419920683e-01 -1.3027830422e-01
-1.4539061487e-01 7.5511717796e-01 -1.3027943671e-01
-1.4075194299e-01 7.5599604845e-01 -1.3028058410e-01
-1.3611327112e-01 7.5685542822e-01 -1.3028171659e-01
-1.2681640685e-01 7.5849610567e-01 -1.3028396666e-01
-1.0817382485e-01 7.6140624285e-01 -1.3028846681e-01
-1.0349608958e-01 7.6205074787e-01 -1.3028958440e-01
-9.8818354309e-02 7.6267576218e-01 -1.3029071689e-01
-9.4140626490e-02 7.6328122616e-01 -1.3029183447e-01
-5.6572265923e-02 7.6703125238e-01 -1.3030071557e-01
-4.7158200294e-02 7.6767575741e-01 -1.3030292094e-01
-2.8310546651e-02 7.6863276958e-01 -1.3030730188e-01
-1.8867187202e-02 7.6894527674e-01 -1.3030947745e-01
-1.4150390401e-02 7.6904296875e-01 -1.3031056523e-01
-9.4335936010e-03 7.6912105083e-01 -1.3031165302e-01
-4.7167968005e-03 7.6917964220e-01 -1.3031272590e-01
0.0000000000e+00 7.6919919252e-01 -1.3031379879e-01
9.4433594495e-03 7.6916015148e-01 -1.3031594455e-01
1.4160156250e-02 7.6908200979e-01 -1.3031701744e-01
2.3603515700e-02 7.6886719465e-01 -1.3031914830e-01
3.7744138390e-02 7.6832032204e-01 -1.3032232225e-01
4.7177731991e-02 7.6781249046e-01 -1.3032443821e-01
5.6591793895e-02 7.6718747616e-01 -1.3032652438e-01
7.5410157442e-02 7.6558589935e-01 -1.3033068180e-01
8.0107420683e-02 7.6511716843e-01 -1.3033170998e-01
8.9492186904e-02 7.6410156488e-01 -1.3033376634e-01
9.4179682434e-02 7.6353514194e-01 -1.3033477962e-01
9.8867185414e-02 7.6294922829e-01 -1.3033579290e-01
1.0354492068e-01 7.6234370470e-01 -1.3033680618e-01
1.1755859107e-01 7.6031249762e-01 -1.3033983111e-01
1.2222655863e-01 7.5958985090e-01 -1.3034082949e-01
1.2688475847e-01 7.5882810354e-01 -1.3034182787e-01
1.3153320551e-01 7.5804686546e-01 -1.3034281135e-01
1.3619139791e-01 7.5722652674e-01 -1.3034380972e-01
1.5473632514e-01 7.5367188454e-01 -1.3034772873e-01
1.5935546160e-01 7.5271481276e-01 -1.3034869730e-01
1.6858397424e-01 7.5072264671e-01 -1.3035061955e-01
1.7319335043e-01 7.4968749285e-01 -1.3035158813e-01
1.8696288764e-01 7.4638670683e-01 -1.3035443425e-01
2.0067381859e-01 7.4283200502e-01 -1.3035726547e-01
2.0523436368e-01 7.4158203602e-01 -1.3035818934e-01
2.1431639791e-01 7.3902344704e-01 -1.3036003709e-01
2.2337889671e-01 7.3634761572e-01 -1.3036186993e-01
2.4586912990e-01 7.2917968035e-01 -1.3036638498e-01
2.6812499762e-01 7.2132807970e-01 -1.3037076592e-01
2.7254882455e-01 7.1966797113e-01 -1.3037163019e-01
2.8136718273e-01 7.1626949310e-01 -1.3037334383e-01
2.9013672471e-01 7.1277344227e-01 -1.3037504256e-01
2.9886716604e-01 7.0917969942e-01 -1.3037672639e-01
3.1619140506e-01 7.0164060593e-01 -1.3038001955e-01
3.2048827410e-01 6.9968748093e-01 -1.3038082421e-01
3.2905271649e-01 6.9572263956e-01 -1.3038243353e-01
3.3757811785e-01 6.9164061546e-01 -1.3038402796e-01
3.4181639552e-01 6.8955075741e-01 -1.3038481772e-01
3.4603515267e-01 6.8744140863e-01 -1.3038559258e-01
3.5445311666e-01 6.8316406012e-01 -1.3038714230e-01
3.5864257812e-01 6.8097656965e-01 -1.3038790226e-01
3.6696287990e-01 6.7652344704e-01 -1.3038942218e-01
3.7524414062e-01 6.7199218273e-01 -1.3039091229e-01
3.7936523557e-01 6.6966795921e-01 -1.3039165735e-01
3.8346678019e-01 6.6734373569e-01 -1.3039238751e-01
3.8755857944e-01 6.6498047113e-01 -1.3039311767e-01
3.9973631501e-01 6.5773433447e-01 -1.3039526343e-01
4.0376952291e-01 6.5527343750e-01 -1.3039596379e-01
4.0778318048e-01 6.5279293060e-01 -1.3039666414e-01
4.1178709269e-01 6.5027344227e-01 -1.3039734960e-01
4.1577148438e-01 6.4775389433e-01 -1.3039804995e-01
4.1973632574e-01 6.4519530535e-01 -1.3039873540e-01
4.2369139194e-01 6.4259761572e-01 -1.3039940596e-01
4.2762693763e-01 6.3999998569e-01 -1.3040007651e-01
4.3544921279e-01 6.3470703363e-01 -1.3040140271e-01
4.5472654700e-01 6.2107419968e-01 -1.3040460646e-01
4.6984374523e-01 6.0972654819e-01 -1.3040708005e-01
4.7357422113e-01 6.0683590174e-01 -1.3040767610e-01
4.8833984137e-01 5.9503906965e-01 -1.3041001558e-01
4.9198240042e-01 5.9203124046e-01 -1.3041059673e-01
4.9560546875e-01 5.8900392056e-01 -1.3041114807e-01
4.9920898676e-01 5.8595699072e-01 -1.3041171432e-01
5.0636714697e-01 5.7980465889e-01 -1.3041281700e-01
5.0992184877e-01 5.7667964697e-01 -1.3041335344e-01
5.1696288586e-01 5.7039064169e-01 -1.3041441143e-01
5.2045899630e-01 5.6720703840e-01 -1.3041493297e-01
5.2392578125e-01 5.6400388479e-01 -1.3041543961e-01
5.3081053495e-01 5.5753904581e-01 -1.3041645288e-01
5.3422850370e-01 5.5427736044e-01 -1.3041694462e-01
5.3761714697e-01 5.5097657442e-01 -1.3041743636e-01
5.4099607468e-01 5.4767578840e-01 -1.3041791320e-01
5.4434567690e-01 5.4435545206e-01 -1.3041839004e-01
5.4767578840e-01 5.4099607468e-01 -1.3041886687e-01
5.5098628998e-01 5.3763669729e-01 -1.3041932881e-01
5.5427736044e-01 5.3423827887e-01 -1.3041977584e-01
5.5754882097e-01 5.3083986044e-01 -1.3042023778e-01
5.6402343512e-01 5.2396482229e-01 -1.3042111695e-01
5.7041990757e-01 5.1699215174e-01 -1.3042196631e-01
5.7358396053e-01 5.1349610090e-01 -1.3042238355e-01
5.8293944597e-01 5.0285154581e-01 -1.3042359054e-01
5.8601564169e-01 4.9925780296e-01 -1.3042397797e-01
5.8907222748e-01 4.9566406012e-01 -1.3042436540e-01
5.9209960699e-01 4.9201169610e-01 -1.3042473793e-01
5.9809571505e-01 4.8472654819e-01 -1.3042548299e-01
6.0400390625e-01 4.7734373808e-01 -1.3042618334e-01
6.0692381859e-01 4.7363281250e-01 -1.3042652607e-01
6.0982418060e-01 4.6990233660e-01 -1.3042686880e-01
6.1836910248e-01 4.5859372616e-01 -1.3042783737e-01
6.2118160725e-01 4.5480468869e-01 -1.3042815030e-01
6.2395507097e-01 4.5097655058e-01 -1.3042844832e-01
6.2944334745e-01 4.4330078363e-01 -1.3042902946e-01
6.3215816021e-01 4.3941405416e-01 -1.3042932749e-01
6.3484370708e-01 4.3552732468e-01 -1.3042959571e-01
6.4275389910e-01 4.2376953363e-01 -1.3043038547e-01
6.4534175396e-01 4.1982421279e-01 -1.3043062389e-01
6.4791011810e-01 4.1585937142e-01 -1.3043086231e-01
6.5044921637e-01 4.1187497973e-01 -1.3043110073e-01
6.5296876431e-01 4.0789061785e-01 -1.3043132424e-01
6.5792965889e-01 3.9984375238e-01 -1.3043175638e-01
6.6754883528e-01 3.8357421756e-01 -1.3043254614e-01
6.7676758766e-01 3.6707031727e-01 -1.3043321669e-01
6.8340820074e-01 3.5455077887e-01 -1.3043364882e-01
6.8770503998e-01 3.4615233541e-01 -1.3043390214e-01
6.9599610567e-01 3.2916015387e-01 -1.3043430448e-01
7.0194333792e-01 3.1630858779e-01 -1.3043455780e-01
7.0764648914e-01 3.0332031846e-01 -1.3043473661e-01
7.1311521530e-01 2.9025390744e-01 -1.3043484092e-01
7.1662110090e-01 2.8148436546e-01 -1.3043488562e-01
7.1833008528e-01 2.7707031369e-01 -1.3043488562e-01
7.2001951933e-01 2.7265623212e-01 -1.3043488562e-01
7.2331053019e-01 2.6380857825e-01 -1.3043487072e-01
7.2492188215e-01 2.5935545564e-01 -1.3043485582e-01
7.2649413347e-01 2.5492188334e-01 -1.3043484092e-01
7.2804683447e-01 2.5044921041e-01 -1.3043479621e-01
7.3106443882e-01 2.4150389433e-01 -1.3043470681e-01
7.3252928257e-01 2.3701171577e-01 -1.3043464720e-01
7.3397457600e-01 2.3250000179e-01 -1.3043460250e-01
7.4075192213e-01 2.0988281071e-01 -1.3043417037e-01
7.4327147007e-01 2.0078124106e-01 -1.3043396175e-01
7.4448239803e-01 1.9621093571e-01 -1.3043384254e-01
7.4567383528e-01 1.9164061546e-01 -1.3043372333e-01
7.4683594704e-01 1.8707031012e-01 -1.3043358922e-01
7.4796873331e-01 1.8248046935e-01 -1.3043345511e-01
7.5120115280e-01 1.6867187619e-01 -1.3043299317e-01
7.5221675634e-01 1.6406250000e-01 -1.3043282926e-01
7.5689452887e-01 1.4091797173e-01 -1.3043187559e-01
7.5774413347e-01 1.3626952469e-01 -1.3043168187e-01
7.5856441259e-01 1.3160155714e-01 -1.3043145835e-01
7.5935542583e-01 1.2695312500e-01 -1.3043123484e-01
7.6011717319e-01 1.2228514999e-01 -1.3043099642e-01
7.6084959507e-01 1.1761718243e-01 -1.3043075800e-01
7.6223629713e-01 1.0828124732e-01 -1.3043028116e-01
7.6519531012e-01 8.4843747318e-02 -1.3042892516e-01
7.6617187262e-01 7.5449213386e-02 -1.3042832911e-01
7.6662105322e-01 7.0742182434e-02 -1.3042801619e-01
7.6704102755e-01 6.6035151482e-02 -1.3042770326e-01
7.6742184162e-01 6.1328124255e-02 -1.3042739034e-01
7.6778316498e-01 5.6621093303e-02 -1.3042706251e-01
7.6811522245e-01 5.1914062351e-02 -1.3042673469e-01
7.6841795444e-01 4.7187499702e-02 -1.3042639196e-01
7.6869136095e-01 4.2480468750e-02 -1.3042603433e-01
7.6893550158e-01 3.7753906101e-02 -1.3042569160e-01
7.6972657442e-01 1.4160156250e-02 -1.3042382896e-01
7.6983398199e-01 4.7070309520e-03 -1.3042302430e-01
7.6984375715e-01 -1.9531249563e-05 -1.3042262197e-01
7.6970702410e-01 -1.4179687016e-02 -1.3042137027e-01
7.6947265863e-01 -2.3632811382e-02 -1.3042049110e-01
7.6912105083e-01 -3.3066406846e-02 -1.3041959703e-01
7.6889646053e-01 -3.7792969495e-02 -1.3041913509e-01
7.6865231991e-01 -4.2500000447e-02 -1.3041867316e-01
7.6773434877e-01 -5.6640625000e-02 -1.3041724265e-01
7.6655274630e-01 -7.0761717856e-02 -1.3041573763e-01
7.6609373093e-01 -7.5468748808e-02 -1.3041523099e-01
7.6561522484e-01 -8.0156251788e-02 -1.3041470945e-01
7.6457029581e-01 -8.9550778270e-02 -1.3041366637e-01
7.6278316975e-01 -1.0361327976e-01 -1.3041202724e-01
7.6212888956e-01 -1.0828124732e-01 -1.3041149080e-01
7.6144528389e-01 -1.1296875030e-01 -1.3041090965e-01
7.6074218750e-01 -1.1763671786e-01 -1.3041035831e-01
7.5999999046e-01 -1.2230468541e-01 -1.3040977716e-01
7.5760740042e-01 -1.3626952469e-01 -1.3040803373e-01
7.5675779581e-01 -1.4091797173e-01 -1.3040742278e-01
7.5305664539e-01 -1.5943358839e-01 -1.3040497899e-01
7.5206053257e-01 -1.6404296458e-01 -1.3040435314e-01
7.5103515387e-01 -1.6867187619e-01 -1.3040372729e-01
7.4890625477e-01 -1.7787109315e-01 -1.3040243089e-01
7.4779295921e-01 -1.8246093392e-01 -1.3040179014e-01
7.4666011333e-01 -1.8703123927e-01 -1.3040113449e-01
7.4429684877e-01 -1.9619140029e-01 -1.3039980829e-01
7.4307614565e-01 -2.0074218512e-01 -1.3039912283e-01
7.4182617664e-01 -2.0531249046e-01 -1.3039845228e-01
7.4054688215e-01 -2.0984373987e-01 -1.3039776683e-01
7.3924803734e-01 -2.1439452469e-01 -1.3039706647e-01
7.3655271530e-01 -2.2343748808e-01 -1.3039568067e-01
7.3515623808e-01 -2.2794921696e-01 -1.3039496541e-01
7.3374998569e-01 -2.3246093094e-01 -1.3039425015e-01
7.3083007336e-01 -2.4144530296e-01 -1.3039281964e-01
7.2932612896e-01 -2.4591796100e-01 -1.3039207458e-01
7.2624999285e-01 -2.5484374166e-01 -1.3039059937e-01
7.2466796637e-01 -2.5929686427e-01 -1.3038985431e-01
7.2305661440e-01 -2.6374998689e-01 -1.3038910925e-01
7.2142577171e-01 -2.6816406846e-01 -1.3038834929e-01
7.1976560354e-01 -2.7259764075e-01 -1.3038758934e-01
7.1282225847e-01 -2.9017576575e-01 -1.3038448989e-01
7.0547848940e-01 -3.0755859613e-01 -1.3038130105e-01
7.0164060593e-01 -3.1619140506e-01 -1.3037967682e-01
6.9769531488e-01 -3.2478514314e-01 -1.3037803769e-01
6.9569331408e-01 -3.2904297113e-01 -1.3037721813e-01
6.9365233183e-01 -3.3332031965e-01 -1.3037636876e-01
6.9159179926e-01 -3.3755859733e-01 -1.3037554920e-01
6.8950194120e-01 -3.4179687500e-01 -1.3037469983e-01
6.8738281727e-01 -3.4601563215e-01 -1.3037385046e-01
6.8524414301e-01 -3.5023435950e-01 -1.3037300110e-01
6.7867183685e-01 -3.6277341843e-01 -1.3037040830e-01
6.7416012287e-01 -3.7107419968e-01 -1.3036866486e-01
6.7186522484e-01 -3.7519529462e-01 -1.3036778569e-01
6.6954100132e-01 -3.7931638956e-01 -1.3036689162e-01
6.6719722748e-01 -3.8339844346e-01 -1.3036601245e-01
6.5510737896e-01 -4.0367186069e-01 -1.3036149740e-01
6.5260738134e-01 -4.0769529343e-01 -1.3036058843e-01
6.5008789301e-01 -4.1167968512e-01 -1.3035964966e-01
6.4754879475e-01 -4.1566404700e-01 -1.3035872579e-01
6.4498043060e-01 -4.1962888837e-01 -1.3035780191e-01
6.4239257574e-01 -4.2357420921e-01 -1.3035687804e-01
6.3713866472e-01 -4.3140622973e-01 -1.3035498559e-01
6.3178712130e-01 -4.3919920921e-01 -1.3035310805e-01
6.0654294491e-01 -4.7335937619e-01 -1.3034439087e-01
6.0362303257e-01 -4.7707030177e-01 -1.3034340739e-01
5.9771484137e-01 -4.8443359137e-01 -1.3034141064e-01
5.9472656250e-01 -4.8808592558e-01 -1.3034042716e-01
5.9170895815e-01 -4.9173825979e-01 -1.3033941388e-01
5.8562499285e-01 -4.9892577529e-01 -1.3033740222e-01
5.8254879713e-01 -5.0249999762e-01 -1.3033638895e-01
5.7945311069e-01 -5.0607419014e-01 -1.3033537567e-01
5.7319337130e-01 -5.1312500238e-01 -1.3033333421e-01
5.5715817213e-01 -5.3044921160e-01 -1.3032817841e-01
5.5059570074e-01 -5.3724610806e-01 -1.3032609224e-01
5.4728513956e-01 -5.4060548544e-01 -1.3032506406e-01
5.4395508766e-01 -5.4394531250e-01 -1.3032400608e-01
5.3041988611e-01 -5.5710935593e-01 -1.3031978905e-01
5.2699220181e-01 -5.6035155058e-01 -1.3031871617e-01
5.2006834745e-01 -5.6677734852e-01 -1.3031658530e-01
5.1657223701e-01 -5.6994140148e-01 -1.3031551242e-01
5.1306641102e-01 -5.7310545444e-01 -1.3031443954e-01
5.0953125954e-01 -5.7623046637e-01 -1.3031335175e-01
5.0598633289e-01 -5.7935547829e-01 -1.3031229377e-01
5.0241208076e-01 -5.8244138956e-01 -1.3031120598e-01
4.9882811308e-01 -5.8550781012e-01 -1.3031011820e-01
4.8795896769e-01 -5.9457027912e-01 -1.3030685484e-01
4.8428711295e-01 -5.9753906727e-01 -1.3030576706e-01
4.8061522841e-01 -6.0050779581e-01 -1.3030466437e-01
4.6946287155e-01 -6.0923826694e-01 -1.3030137122e-01
4.6571287513e-01 -6.1208981276e-01 -1.3030026853e-01
4.5816406608e-01 -6.1775386333e-01 -1.3029806316e-01
4.5435544848e-01 -6.2054687738e-01 -1.3029694557e-01
4.5053708553e-01 -6.2332028151e-01 -1.3029584289e-01
4.3897458911e-01 -6.3148438931e-01 -1.3029249012e-01
4.3508788943e-01 -6.3416016102e-01 -1.3029137254e-01
4.3119138479e-01 -6.3681638241e-01 -1.3029025495e-01
4.2726561427e-01 -6.3945311308e-01 -1.3028913736e-01
4.1541990638e-01 -6.4718747139e-01 -1.3028575480e-01
4.1143554449e-01 -6.4972656965e-01 -1.3028463721e-01
3.9939451218e-01 -6.5716797113e-01 -1.3028123975e-01
3.9129883051e-01 -6.6201168299e-01 -1.3027897477e-01
3.8313475251e-01 -6.6673827171e-01 -1.3027670979e-01
3.7903320789e-01 -6.6908204556e-01 -1.3027557731e-01
3.7079101801e-01 -6.7367184162e-01 -1.3027329743e-01
3.6248046160e-01 -6.7816406488e-01 -1.3027101755e-01
3.5831055045e-01 -6.8037110567e-01 -1.3026987016e-01
3.4572264552e-01 -6.8681639433e-01 -1.3026644289e-01
3.3725586534e-01 -6.9099605083e-01 -1.3026414812e-01
3.2874998450e-01 -6.9507813454e-01 -1.3026185334e-01
3.2447263598e-01 -6.9707030058e-01 -1.3026070595e-01
3.2018554211e-01 -6.9904297590e-01 -1.3025955856e-01
3.0292966962e-01 -7.0666015148e-01 -1.3025496900e-01
2.9422849417e-01 -7.1033203602e-01 -1.3025267422e-01
2.8986328840e-01 -7.1210938692e-01 -1.3025151193e-01
2.8547850251e-01 -7.1386718750e-01 -1.3025036454e-01
2.7669921517e-01 -7.1730464697e-01 -1.3024806976e-01
2.6787108183e-01 -7.2062498331e-01 -1.3024577498e-01
2.5900390744e-01 -7.2384762764e-01 -1.3024346530e-01
2.5455078483e-01 -7.2542965412e-01 -1.3024231791e-01
2.4562498927e-01 -7.2847652435e-01 -1.3024002314e-01
2.3666991293e-01 -7.3142576218e-01 -1.3023771346e-01
2.3216795921e-01 -7.3285156488e-01 -1.3023658097e-01
2.1863280237e-01 -7.3699218035e-01 -1.3023313880e-01
2.0957030356e-01 -7.3960936069e-01 -1.3023082912e-01
2.0502929389e-01 -7.4085932970e-01 -1.3022969663e-01
1.9591796398e-01 -7.4332028627e-01 -1.3022740185e-01
1.8677733839e-01 -7.4564450979e-01 -1.3022512197e-01
1.8219725788e-01 -7.4677735567e-01 -1.3022397459e-01
1.7760741711e-01 -7.4787110090e-01 -1.3022282720e-01
1.7301757634e-01 -7.4894529581e-01 -1.3022169471e-01
1.6841796041e-01 -7.4998044968e-01 -1.3022054732e-01
1.6380858421e-01 -7.5099605322e-01 -1.3021941483e-01
1.5919920802e-01 -7.5197261572e-01 -1.3021828234e-01
1.5458007157e-01 -7.5292968750e-01 -1.3021714985e-01
1.4996093512e-01 -7.5386714935e-01 -1.3021601737e-01
1.4532226324e-01 -7.5476562977e-01 -1.3021488488e-01
1.4069335163e-01 -7.5564450026e-01 -1.3021373749e-01
1.2675781548e-01 -7.5808590651e-01 -1.3021035492e-01
1.2209960818e-01 -7.5882810354e-01 -1.3020923734e-01
1.0811523348e-01 -7.6093751192e-01 -1.3020585477e-01
9.8759762943e-02 -7.6218748093e-01 -1.3020361960e-01
8.4716796875e-02 -7.6386719942e-01 -1.3020028174e-01
7.5332030654e-02 -7.6482421160e-01 -1.3019806147e-01
5.6533202529e-02 -7.6642578840e-01 -1.3019363582e-01
5.1826171577e-02 -7.6673823595e-01 -1.3019253314e-01
4.7119140625e-02 -7.6705074310e-01 -1.3019143045e-01
4.2412109673e-02 -7.6730465889e-01 -1.3019034266e-01
3.2988280058e-02 -7.6775389910e-01 -1.3018815219e-01
2.8281249106e-02 -7.6794922352e-01 -1.3018706441e-01
2.3564452305e-02 -7.6810544729e-01 -1.3018597662e-01
1.4140624553e-02 -7.6832032204e-01 -1.3018380105e-01
9.4238277525e-03 -7.6837891340e-01 -1.3018272817e-01
4.7070309520e-03 -7.6841795444e-01 -1.3018164039e-01
-4.7167968005e-03 -7.6839840412e-01 -1.3017949462e-01
-9.4335936010e-03 -7.6835936308e-01 -1.3017843664e-01
-1.8857421353e-02 -7.6816403866e-01 -1.3017630577e-01
-2.3574218154e-02 -7.6802730560e-01 -1.3017523289e-01
-2.8291014954e-02 -7.6787108183e-01 -1.3017417490e-01
-3.2998047769e-02 -7.6767575741e-01 -1.3017311692e-01
-3.7705078721e-02 -7.6746094227e-01 -1.3017205894e-01
-4.7119140625e-02 -7.6691406965e-01 -1.3016995788e-01
-5.1826171577e-02 -7.6660156250e-01 -1.3016891479e-01
-6.5917968750e-02 -7.6550781727e-01 -1.3016580045e-01
-7.5302734971e-02 -7.6462888718e-01 -1.3016374409e-01
-7.9990230501e-02 -7.6414060593e-01 -1.3016271591e-01
-8.4677733481e-02 -7.6363277435e-01 -1.3016168773e-01
-8.9365229011e-02 -7.6308590174e-01 -1.3016065955e-01
-9.4042964280e-02 -7.6251953840e-01 -1.3015964627e-01
-9.8720699549e-02 -7.6193356514e-01 -1.3015863299e-01
-1.0338866711e-01 -7.6130855083e-01 -1.3015761971e-01
-1.0805663466e-01 -7.6064449549e-01 -1.3015662134e-01
-1.2204100937e-01 -7.5851559639e-01 -1.3015361130e-01
-1.2668944895e-01 -7.5775390863e-01 -1.3015262783e-01
-1.4061522484e-01 -7.5527340174e-01 -1.3014966249e-01
-1.4524413645e-01 -7.5439453125e-01 -1.3014867902e-01
-1.6831053793e-01 -7.4955075979e-01 -1.3014385104e-01
-1.7290039361e-01 -7.4849605560e-01 -1.3014288247e-01
-1.7749023438e-01 -7.4742186069e-01 -1.3014192879e-01
-1.9122070074e-01 -7.4400389194e-01 -1.3013909757e-01
-1.9577148557e-01 -7.4281245470e-01 -1.3013815880e-01
-2.0032225549e-01 -7.4160152674e-01 -1.3013723493e-01
-2.1393553913e-01 -7.3777341843e-01 -1.3013446331e-01
-2.1845702827e-01 -7.3642575741e-01 -1.3013355434e-01
-2.2297851741e-01 -7.3507809639e-01 -1.3013263047e-01
-2.2748045623e-01 -7.3369139433e-01 -1.3013172150e-01
-2.3197264969e-01 -7.3226559162e-01 -1.3013082743e-01
-2.3646484315e-01 -7.3082029819e-01 -1.3012993336e-01
-2.5431638956e-01 -7.2478514910e-01 -1.3012638688e-01
-2.7642577887e-01 -7.1662110090e-01 -1.3012205064e-01
-2.8081053495e-01 -7.1490234137e-01 -1.3012121618e-01
-2.8519532084e-01 -7.1316403151e-01 -1.3012036681e-01
-2.8956052661e-01 -7.1140623093e-01 -1.3011951745e-01
-2.9391601682e-01 -7.0960932970e-01 -1.3011866808e-01
-2.9826170206e-01 -7.0777344704e-01 -1.3011784852e-01
-3.0259764194e-01 -7.0593750477e-01 -1.3011701405e-01
-3.0692380667e-01 -7.0406246185e-01 -1.3011619449e-01
-3.1123045087e-01 -7.0216792822e-01 -1.3011537492e-01
-3.1982421875e-01 -6.9828122854e-01 -1.3011375070e-01
