VERSION 0.7
FIELDS x y z
SIZE 4 4 4
TYPE F F F
COUNT 1 1 1
WIDTH 904
HEIGHT 1
VIEWPOINT 0.0 0.0 0.0 1.0 0.0 0.0 0.0
POINTS 904
DATA ascii
-1.5478515066e-02 3.6009764671e-01 -1.3027483225e-01
-1.3261718675e-02 3.6017575860e-01 -1.3027533889e-01
-8.8476557285e-03 3.6031249166e-01 -1.3027636707e-01
-6.6308593377e-03 3.6037108302e-01 -1.3027687371e-01
-4.4238278642e-03 3.6041015387e-01 -1.3027738035e-01
-2.2070312407e-03 3.6042967439e-01 -1.3027787209e-01
2.2167968564e-03 3.6042967439e-01 -1.3027888536e-01
4.4238278642e-03 3.6041015387e-01 -1.3027939200e-01
6.6406247206e-03 3.6037108302e-01 -1.3027988374e-01
1.3271484524e-02 3.6019530892e-01 -1.3028138876e-01
1.5478515066e-02 3.6011716723e-01 -1.3028188050e-01
1.9892577082e-02 3.5990232229e-01 -1.3028287888e-01
2.4316405877e-02 3.5962888598e-01 -1.3028386235e-01
2.6523437351e-02 3.5947266221e-01 -1.3028433919e-01
3.0927734450e-02 3.5912108421e-01 -1.3028532267e-01
3.5332031548e-02 3.5873046517e-01 -1.3028629124e-01
3.9736326784e-02 3.5826170444e-01 -1.3028725982e-01
4.1933592409e-02 3.5800781846e-01 -1.3028773665e-01
4.4130858034e-02 3.5775390267e-01 -1.3028821349e-01
5.2890624851e-02 3.5656249523e-01 -1.3029010594e-01
5.5087890476e-02 3.5623046756e-01 -1.3029058278e-01
5.9453122318e-02 3.5554686189e-01 -1.3029152155e-01
6.5986327827e-02 3.5439452529e-01 -1.3029289246e-01
6.8154297769e-02 3.5398435593e-01 -1.3029335439e-01
7.0332027972e-02 3.5355466604e-01 -1.3029383123e-01
7.2499997914e-02 3.5312500596e-01 -1.3029427826e-01
7.4667967856e-02 3.5267576575e-01 -1.3029472530e-01
7.6826170087e-02 3.5220703483e-01 -1.3029517233e-01
7.8984372318e-02 3.5171875358e-01 -1.3029563427e-01
8.1142574549e-02 3.5123047233e-01 -1.3029608130e-01
8.5449218750e-02 3.5021483898e-01 -1.3029697537e-01
8.9736327529e-02 3.4914061427e-01 -1.3029785454e-01
9.6152342856e-02 3.4744140506e-01 -1.3029918075e-01
9.8281249404e-02 3.4683594108e-01 -1.3029959798e-01
1.0252929479e-01 3.4560546279e-01 -1.3030047715e-01
1.0464843363e-01 3.4498044848e-01 -1.3030089438e-01
1.0676757246e-01 3.4433594346e-01 -1.3030132651e-01
1.1937499791e-01 3.4017577767e-01 -1.3030384481e-01
1.2145507336e-01 3.3943358064e-01 -1.3030424714e-01
1.2768554688e-01 3.3714842796e-01 -1.3030546904e-01
1.3181640208e-01 3.3554688096e-01 -1.3030627370e-01
1.3591796160e-01 3.3390623331e-01 -1.3030706346e-01
1.3796874881e-01 3.3306640387e-01 -1.3030746579e-01
1.4000976086e-01 3.3222654462e-01 -1.3030785322e-01
1.4205077291e-01 3.3136719465e-01 -1.3030824065e-01
1.4408202469e-01 3.3048826456e-01 -1.3030862808e-01
1.4610351622e-01 3.2958984375e-01 -1.3030901551e-01
1.5415038168e-01 3.2591795921e-01 -1.3031053543e-01
1.5615233779e-01 3.2496091723e-01 -1.3031090796e-01
1.5813475847e-01 3.2400390506e-01 -1.3031128049e-01
1.6012695432e-01 3.2302734256e-01 -1.3031163812e-01
1.6209959984e-01 3.2203122973e-01 -1.3031199574e-01
1.6800780594e-01 3.1900390983e-01 -1.3031308353e-01
1.7384764552e-01 3.1585937738e-01 -1.3031414151e-01
1.7771483958e-01 3.1369140744e-01 -1.3031484187e-01
1.8155272305e-01 3.1150388718e-01 -1.3031552732e-01
1.8536132574e-01 3.0925780535e-01 -1.3031619787e-01
1.9102539122e-01 3.0578124523e-01 -1.3031719625e-01
1.9290038943e-01 3.0460935831e-01 -1.3031750917e-01
1.9662109017e-01 3.0222654343e-01 -1.3031814992e-01
2.0032225549e-01 2.9978513718e-01 -1.3031879067e-01
2.0398436487e-01 2.9730468988e-01 -1.3031941652e-01
2.0761717856e-01 2.9478514194e-01 -1.3032002747e-01
2.0942382514e-01 2.9349607229e-01 -1.3032031059e-01
2.1122069657e-01 2.9220703244e-01 -1.3032060862e-01
2.1300780773e-01 2.9091796279e-01 -1.3032090664e-01
2.1479491889e-01 2.8960937262e-01 -1.3032120466e-01
2.1833007038e-01 2.8695312142e-01 -1.3032178581e-01
2.2183592618e-01 2.8423827887e-01 -1.3032235205e-01
2.2357422113e-01 2.8289061785e-01 -1.3032262027e-01
2.2874999046e-01 2.7871093154e-01 -1.3032343984e-01
2.3214843869e-01 2.7589842677e-01 -1.3032397628e-01
2.3383788764e-01 2.7447265387e-01 -1.3032422960e-01
2.3551757634e-01 2.7302733064e-01 -1.3032449782e-01
2.3718748987e-01 2.7158203721e-01 -1.3032475114e-01
2.4050781131e-01 2.6865234971e-01 -1.3032524288e-01
2.4214842916e-01 2.6716795564e-01 -1.3032549620e-01
2.4541014433e-01 2.6417967677e-01 -1.3032598794e-01
2.4703124166e-01 2.6265624166e-01 -1.3032622635e-01
2.4863280356e-01 2.6115232706e-01 -1.3032644987e-01
2.5023436546e-01 2.5960937142e-01 -1.3032668829e-01
2.5182616711e-01 2.5806638598e-01 -1.3032691181e-01
2.5339841843e-01 2.5652343035e-01 -1.3032713532e-01
2.5497069955e-01 2.5496092439e-01 -1.3032735884e-01
2.5962889194e-01 2.5023436546e-01 -1.3032801449e-01
2.6418945193e-01 2.4541014433e-01 -1.3032864034e-01
2.6866209507e-01 2.4050781131e-01 -1.3032923639e-01
2.7012693882e-01 2.3884765804e-01 -1.3032941520e-01
2.7159178257e-01 2.3718748987e-01 -1.3032960892e-01
2.7591797709e-01 2.3214843869e-01 -1.3033016026e-01
2.8014647961e-01 2.2703124583e-01 -1.3033066690e-01
2.8153321147e-01 2.2531250119e-01 -1.3033084571e-01
2.8291013837e-01 2.2357422113e-01 -1.3033100963e-01
2.8563475609e-01 2.2009764612e-01 -1.3033133745e-01
2.8697264194e-01 2.1833984554e-01 -1.3033148646e-01
2.9094725847e-01 2.1302734315e-01 -1.3033191860e-01
2.9224607348e-01 2.1123045683e-01 -1.3033206761e-01
2.9354491830e-01 2.0943358541e-01 -1.3033221662e-01
2.9609373212e-01 2.0582030714e-01 -1.3033246994e-01
2.9734373093e-01 2.0400390029e-01 -1.3033260405e-01
2.9983398318e-01 2.0033203065e-01 -1.3033285737e-01
3.0105468631e-01 1.9849608839e-01 -1.3033297658e-01
3.0225583911e-01 1.9664062560e-01 -1.3033308089e-01
3.0464842916e-01 1.9291014969e-01 -1.3033330441e-01
3.0582031608e-01 1.9103515148e-01 -1.3033340871e-01
3.0699217319e-01 1.8916015327e-01 -1.3033351302e-01
3.0814450979e-01 1.8728515506e-01 -1.3033361733e-01
3.1265625358e-01 1.7966796458e-01 -1.3033398986e-01
3.1374999881e-01 1.7773437500e-01 -1.3033406436e-01
3.1590819359e-01 1.7386718094e-01 -1.3033422828e-01
3.1905272603e-01 1.6802734137e-01 -1.3033443689e-01
3.2109373808e-01 1.6410155594e-01 -1.3033457100e-01
3.2208985090e-01 1.6212889552e-01 -1.3033461571e-01
3.2308593392e-01 1.6015625000e-01 -1.3033467531e-01
3.2406249642e-01 1.5816405416e-01 -1.3033472002e-01
3.2501953840e-01 1.5617187321e-01 -1.3033476472e-01
3.2597655058e-01 1.5417967737e-01 -1.3033480942e-01
3.2965821028e-01 1.4613281190e-01 -1.3033495843e-01
3.3055663109e-01 1.4410156012e-01 -1.3033498824e-01
3.3229491115e-01 1.4003905654e-01 -1.3033503294e-01
3.3314451575e-01 1.3798828423e-01 -1.3033504784e-01
3.3481445909e-01 1.3388670981e-01 -1.3033507764e-01
3.3563476801e-01 1.3183593750e-01 -1.3033507764e-01
3.3876952529e-01 1.2355468422e-01 -1.3033507764e-01
3.4375974536e-01 1.0890624672e-01 -1.3033494353e-01
3.4442383051e-01 1.0679687560e-01 -1.3033491373e-01
3.4632810950e-01 1.0042968392e-01 -1.3033479452e-01
3.4924805164e-01 8.9765623212e-02 -1.3033454120e-01
3.5032224655e-01 8.5468746722e-02 -1.3033440709e-01
3.5083982348e-01 8.3320312202e-02 -1.3033434749e-01
3.5134765506e-01 8.1171870232e-02 -1.3033427298e-01
3.5183593631e-01 7.9003907740e-02 -1.3033419847e-01
3.5231444240e-01 7.6855465770e-02 -1.3033412397e-01
3.5323241353e-01 7.2519533336e-02 -1.3033394516e-01
3.5450193286e-01 6.5996095538e-02 -1.3033367693e-01
3.5528320074e-01 6.1640623957e-02 -1.3033348322e-01
3.5601562262e-01 5.7285156101e-02 -1.3033327460e-01
3.5701170564e-01 5.0722654909e-02 -1.3033293188e-01
3.5731443763e-01 4.8535156995e-02 -1.3033279777e-01
3.5760742426e-01 4.6328123659e-02 -1.3033267856e-01
3.5863280296e-01 3.7539061159e-02 -1.3033215702e-01
3.5906249285e-01 3.3144529909e-02 -1.3033185899e-01
3.5925781727e-01 3.0937498435e-02 -1.3033172488e-01
3.5976561904e-01 2.4316405877e-02 -1.3033126295e-01
3.5991209745e-01 2.2109374404e-02 -1.3033109903e-01
3.6003905535e-01 1.9902342930e-02 -1.3033093512e-01
3.6015623808e-01 1.7695311457e-02 -1.3033078611e-01
3.6025390029e-01 1.5488280915e-02 -1.3033060730e-01
3.6041989923e-01 1.1054687202e-02 -1.3033026457e-01
3.6047852039e-01 8.8476557285e-03 -1.3033008575e-01
3.6052733660e-01 6.6406247206e-03 -1.3032990694e-01
3.6057615280e-01 2.2070312407e-03 -1.3032953441e-01
3.6058592796e-01 -0.0000000000e+00 -1.3032934070e-01
3.6057615280e-01 -2.2070312407e-03 -1.3032914698e-01
3.6055663228e-01 -4.4335937127e-03 -1.3032895327e-01
3.6047852039e-01 -8.8476557285e-03 -1.3032855093e-01
3.6041015387e-01 -1.1054687202e-02 -1.3032834232e-01
3.6034178734e-01 -1.3281249441e-02 -1.3032813370e-01
3.6024412513e-01 -1.5488280915e-02 -1.3032792509e-01
3.5990232229e-01 -2.2109374404e-02 -1.3032726943e-01
3.5959959030e-01 -2.6523437351e-02 -1.3032682240e-01
3.5943359137e-01 -2.8730468825e-02 -1.3032659888e-01
3.5924804211e-01 -3.0937498435e-02 -1.3032636046e-01
3.5905271769e-01 -3.3144529909e-02 -1.3032612205e-01
3.5837888718e-01 -3.9746094495e-02 -1.3032539189e-01
3.5812500119e-01 -4.1933592409e-02 -1.3032513857e-01
3.5786131024e-01 -4.4140625745e-02 -1.3032490015e-01
3.5757812858e-01 -4.6328123659e-02 -1.3032464683e-01
3.5729491711e-01 -4.8535156995e-02 -1.3032439351e-01
3.5666990280e-01 -5.2910156548e-02 -1.3032387197e-01
3.5598632693e-01 -5.7285156101e-02 -1.3032333553e-01
3.5526365042e-01 -6.1640623957e-02 -1.3032278419e-01
3.5487303138e-01 -6.3828125596e-02 -1.3032251596e-01
3.5447263718e-01 -6.5996095538e-02 -1.3032223284e-01
3.5406249762e-01 -6.8164058030e-02 -1.3032194972e-01
3.5363280773e-01 -7.0351563394e-02 -1.3032166660e-01
3.5179686546e-01 -7.9003907740e-02 -1.3032048941e-01
3.5130858421e-01 -8.1152342260e-02 -1.3032019138e-01
3.5080078244e-01 -8.3320312202e-02 -1.3031989336e-01
3.4975585341e-01 -8.7617188692e-02 -1.3031928241e-01
3.4920898080e-01 -8.9746095240e-02 -1.3031896949e-01
3.4865233302e-01 -9.1894529760e-02 -1.3031865656e-01
3.4807616472e-01 -9.4023436308e-02 -1.3031834364e-01
3.4566405416e-01 -1.0253906250e-01 -1.3031706214e-01
3.4437498450e-01 -1.0677734017e-01 -1.3031639159e-01
3.4235352278e-01 -1.1310546845e-01 -1.3031539321e-01
3.4165039659e-01 -1.1519531161e-01 -1.3031505048e-01
3.4093749523e-01 -1.1728515476e-01 -1.3031469285e-01
3.3872070909e-01 -1.2355468422e-01 -1.3031364977e-01
3.3638671041e-01 -1.2976561487e-01 -1.3031257689e-01
3.3557617664e-01 -1.3181640208e-01 -1.3031221926e-01
3.3476561308e-01 -1.3386718929e-01 -1.3031186163e-01
3.3393552899e-01 -1.3591796160e-01 -1.3031148911e-01
3.3223631978e-01 -1.4001952112e-01 -1.3031074405e-01
3.3137694001e-01 -1.4205077291e-01 -1.3031038642e-01
3.3049803972e-01 -1.4408202469e-01 -1.3030999899e-01
3.2959958911e-01 -1.4611327648e-01 -1.3030961156e-01
3.2870116830e-01 -1.4812499285e-01 -1.3030923903e-01
3.2591795921e-01 -1.5414062142e-01 -1.3030807674e-01
3.2496091723e-01 -1.5615233779e-01 -1.3030768931e-01
3.2399412990e-01 -1.5812499821e-01 -1.3030730188e-01
3.2301756740e-01 -1.6011717916e-01 -1.3030691445e-01
3.2102537155e-01 -1.6406250000e-01 -1.3030610979e-01
3.2000976801e-01 -1.6603514552e-01 -1.3030570745e-01
3.1690427661e-01 -1.7189452052e-01 -1.3030448556e-01
3.1583982706e-01 -1.7382812500e-01 -1.3030408323e-01
3.1368163228e-01 -1.7769530416e-01 -1.3030324876e-01
3.1147459149e-01 -1.8154296279e-01 -1.3030241430e-01
3.0807617307e-01 -1.8722656369e-01 -1.3030114770e-01
3.0692380667e-01 -1.8912108243e-01 -1.3030071557e-01
3.0458006263e-01 -1.9287109375e-01 -1.3029986620e-01
3.0218750238e-01 -1.9660155475e-01 -1.3029898703e-01
2.9851561785e-01 -2.0212890208e-01 -1.3029767573e-01
2.9600584507e-01 -2.0576171577e-01 -1.3029679656e-01
2.9473632574e-01 -2.0757812262e-01 -1.3029633462e-01
2.9345703125e-01 -2.0937499404e-01 -1.3029590249e-01
2.8955078125e-01 -2.1474608779e-01 -1.3029454648e-01
2.8822264075e-01 -2.1652343869e-01 -1.3029408455e-01
2.8689453006e-01 -2.1828123927e-01 -1.3029363751e-01
2.8554686904e-01 -2.2003905475e-01 -1.3029317558e-01
2.8418943286e-01 -2.2177733481e-01 -1.3029271364e-01
2.7724608779e-01 -2.3039062321e-01 -1.3029037416e-01
2.7295896411e-01 -2.3544920981e-01 -1.3028897345e-01
2.7004882693e-01 -2.3878905177e-01 -1.3028801978e-01
2.6857420802e-01 -2.4042968452e-01 -1.3028754294e-01
2.6560544968e-01 -2.4371093512e-01 -1.3028657436e-01
2.6106444001e-01 -2.4855467677e-01 -1.3028511405e-01
2.5799804926e-01 -2.5173828006e-01 -1.3028414547e-01
2.5644531846e-01 -2.5332030654e-01 -1.3028365374e-01
2.5332030654e-01 -2.5644531846e-01 -1.3028267026e-01
2.5173828006e-01 -2.5798827410e-01 -1.3028217852e-01
2.5014647841e-01 -2.5953122973e-01 -1.3028168678e-01
2.3710936308e-01 -2.7148437500e-01 -1.3027766347e-01
2.3543944955e-01 -2.7292966843e-01 -1.3027715683e-01
2.3375000060e-01 -2.7437499166e-01 -1.3027666509e-01
2.3207031190e-01 -2.7580076456e-01 -1.3027615845e-01
2.2866210341e-01 -2.7863281965e-01 -1.3027513027e-01
2.2695311904e-01 -2.8001952171e-01 -1.3027462363e-01
2.2349609435e-01 -2.8277343512e-01 -1.3027359545e-01
2.2173827887e-01 -2.8414061666e-01 -1.3027307391e-01
2.1469725668e-01 -2.8949218988e-01 -1.3027100265e-01
2.1291992068e-01 -2.9080078006e-01 -1.3027048111e-01
2.1113280952e-01 -2.9210937023e-01 -1.3026997447e-01
2.0933593810e-01 -2.9339843988e-01 -1.3026945293e-01
2.0752929151e-01 -2.9466795921e-01 -1.3026891649e-01
2.0389647782e-01 -2.9720702767e-01 -1.3026787341e-01
2.0023436844e-01 -2.9966795444e-01 -1.3026683033e-01
1.9653320312e-01 -3.0210936069e-01 -1.3026577234e-01
1.9467772543e-01 -3.0330076814e-01 -1.3026525080e-01
1.9281250238e-01 -3.0449217558e-01 -1.3026471436e-01
1.8528319895e-01 -3.0912107229e-01 -1.3026259840e-01
1.8337890506e-01 -3.1025388837e-01 -1.3026206195e-01
1.7763671279e-01 -3.1357422471e-01 -1.3026046753e-01
1.7570312321e-01 -3.1466796994e-01 -1.3025994599e-01
1.7182616889e-01 -3.1679686904e-01 -1.3025887311e-01
1.6988280416e-01 -3.1783202291e-01 -1.3025833666e-01
1.6400390863e-01 -3.2091796398e-01 -1.3025672734e-01
1.6203124821e-01 -3.2191404700e-01 -1.3025619090e-01
1.6004882753e-01 -3.2289060950e-01 -1.3025565445e-01
1.5607421100e-01 -3.2482421398e-01 -1.3025458157e-01
1.5407225490e-01 -3.2578125596e-01 -1.3025404513e-01
1.5207031369e-01 -3.2671874762e-01 -1.3025350869e-01
1.5006835759e-01 -3.2763671875e-01 -1.3025297225e-01
1.4401367307e-01 -3.3035156131e-01 -1.3025136292e-01
1.4198242128e-01 -3.3123046160e-01 -1.3025081158e-01
1.3994140923e-01 -3.3208984137e-01 -1.3025027514e-01
1.3790038228e-01 -3.3294922113e-01 -1.3024973869e-01
1.3380859792e-01 -3.3460935950e-01 -1.3024865091e-01
1.3174805045e-01 -3.3541014791e-01 -1.3024812937e-01
1.2347655743e-01 -3.3853515983e-01 -1.3024596870e-01
1.2139648199e-01 -3.3929687738e-01 -1.3024543226e-01
1.1930663884e-01 -3.4003904462e-01 -1.3024488091e-01
1.1512695253e-01 -3.4146484733e-01 -1.3024380803e-01
1.0670898110e-01 -3.4417968988e-01 -1.3024166226e-01
9.6103511751e-02 -3.4728515148e-01 -1.3023896515e-01
9.1835938394e-02 -3.4843748808e-01 -1.3023790717e-01
8.7548829615e-02 -3.4953123331e-01 -1.3023681939e-01
8.5400387645e-02 -3.5005858541e-01 -1.3023628294e-01
8.3251953125e-02 -3.5058593750e-01 -1.3023576140e-01
7.6787106693e-02 -3.5205078125e-01 -1.3023415208e-01
7.4619136751e-02 -3.5251951218e-01 -1.3023361564e-01
7.2460934520e-02 -3.5296875238e-01 -1.3023307920e-01
6.5947264433e-02 -3.5423827171e-01 -1.3023148477e-01
6.3769526780e-02 -3.5462889075e-01 -1.3023096323e-01
5.7236324996e-02 -3.5574218631e-01 -1.3022936881e-01
5.5048827082e-02 -3.5607421398e-01 -1.3022884727e-01
5.2861325443e-02 -3.5640624166e-01 -1.3022832572e-01
4.8486325890e-02 -3.5703125596e-01 -1.3022728264e-01
4.4101562351e-02 -3.5759764910e-01 -1.3022622466e-01
4.1904296726e-02 -3.5785156488e-01 -1.3022570312e-01
3.9707031101e-02 -3.5810545087e-01 -1.3022518158e-01
3.7509765476e-02 -3.5833984613e-01 -1.3022466004e-01
3.5312499851e-02 -3.5857421160e-01 -1.3022412360e-01
3.3115234226e-02 -3.5876953602e-01 -1.3022361696e-01
2.8701171279e-02 -3.5916015506e-01 -1.3022257388e-01
2.2089842707e-02 -3.5960936546e-01 -1.3022102416e-01
1.9882811233e-02 -3.5974609852e-01 -1.3022051752e-01
6.6308593377e-03 -3.6021482944e-01 -1.3021744788e-01
4.4238278642e-03 -3.6025390029e-01 -1.3021694124e-01
0.0000000000e+00 -3.6027342081e-01 -1.3021594286e-01
-2.2167968564e-03 -3.6027342081e-01 -1.3021543622e-01
-6.6308593377e-03 -3.6021482944e-01 -1.3021443784e-01
-8.8476557285e-03 -3.6017575860e-01 -1.3021393120e-01
-1.3261718675e-02 -3.6001953483e-01 -1.3021294773e-01
-1.5468749218e-02 -3.5994139314e-01 -1.3021244109e-01
-1.7675781623e-02 -3.5984373093e-01 -1.3021194935e-01
-1.9892577082e-02 -3.5972654819e-01 -1.3021145761e-01
-2.4296874180e-02 -3.5945311189e-01 -1.3021047413e-01
-2.6503905654e-02 -3.5929685831e-01 -1.3020998240e-01
-2.8710937127e-02 -3.5912108421e-01 -1.3020950556e-01
-3.0908202752e-02 -3.5892575979e-01 -1.3020901382e-01
-3.3115234226e-02 -3.5873046517e-01 -1.3020852208e-01
-3.5312499851e-02 -3.5851562023e-01 -1.3020804524e-01
-3.9707031101e-02 -3.5806640983e-01 -1.3020707667e-01
-4.1904296726e-02 -3.5781249404e-01 -1.3020659983e-01
-4.4101562351e-02 -3.5753905773e-01 -1.3020612299e-01
-4.6298827976e-02 -3.5726562142e-01 -1.3020564616e-01
-5.0673827529e-02 -3.5666015744e-01 -1.3020470738e-01
-5.2861325443e-02 -3.5634765029e-01 -1.3020423055e-01
-5.5048827082e-02 -3.5601562262e-01 -1.3020375371e-01
-5.7226561010e-02 -3.5566404462e-01 -1.3020330667e-01
-6.1591796577e-02 -3.5494139791e-01 -1.3020236790e-01
-7.6767578721e-02 -3.5195311904e-01 -1.3019916415e-01
-8.5380859673e-02 -3.4996092319e-01 -1.3019737601e-01
-8.7529294193e-02 -3.4943357110e-01 -1.3019692898e-01
-8.9667968452e-02 -3.4888669848e-01 -1.3019649684e-01
-9.3945309520e-02 -3.4775391221e-01 -1.3019561768e-01
-9.6074216068e-02 -3.4716796875e-01 -1.3019517064e-01
-1.0033202916e-01 -3.4597656131e-01 -1.3019430637e-01
-1.0457030684e-01 -3.4470701218e-01 -1.3019345701e-01
-1.1088866740e-01 -3.4271484613e-01 -1.3019219041e-01
-1.1508788913e-01 -3.4132811427e-01 -1.3019135594e-01
-1.2134765089e-01 -3.3916014433e-01 -1.3019011915e-01
-1.2756834924e-01 -3.3685547113e-01 -1.3018889725e-01
-1.2963867188e-01 -3.3607420325e-01 -1.3018849492e-01
-1.3169921935e-01 -3.3527344465e-01 -1.3018809259e-01
-1.3374999166e-01 -3.3445310593e-01 -1.3018769026e-01
-1.3784179091e-01 -3.3279296756e-01 -1.3018690050e-01
-1.4191405475e-01 -3.3107420802e-01 -1.3018612564e-01
-1.4596679807e-01 -3.2929685712e-01 -1.3018535078e-01
-1.4798827469e-01 -3.2839843631e-01 -1.3018497825e-01
-1.5400390327e-01 -3.2560545206e-01 -1.3018384576e-01
-1.5997070074e-01 -3.2271483541e-01 -1.3018272817e-01
-1.6391600668e-01 -3.2072263956e-01 -1.3018201292e-01
-1.6587890685e-01 -3.1972655654e-01 -1.3018164039e-01
-1.6784179211e-01 -3.1869140267e-01 -1.3018129766e-01
-1.7173828185e-01 -3.1660154462e-01 -1.3018058240e-01
-1.7367187142e-01 -3.1554687023e-01 -1.3018022478e-01
-1.7752929032e-01 -3.1339842081e-01 -1.3017953932e-01
-1.7945311964e-01 -3.1230467558e-01 -1.3017919660e-01
-1.8136718869e-01 -3.1119140983e-01 -1.3017885387e-01
-1.8327148259e-01 -3.1007811427e-01 -1.3017851114e-01
-1.8516601622e-01 -3.0894529819e-01 -1.3017818332e-01
-1.8706054986e-01 -3.0779296160e-01 -1.3017784059e-01
-1.9269530475e-01 -3.0429688096e-01 -1.3017687201e-01
-1.9640624523e-01 -3.0191406608e-01 -1.3017623127e-01
-1.9826170802e-01 -3.0070310831e-01 -1.3017591834e-01
-2.0375975966e-01 -2.9699218273e-01 -1.3017497957e-01
-2.0918944478e-01 -2.9318359494e-01 -1.3017407060e-01
-2.1276366711e-01 -2.9060545564e-01 -1.3017347455e-01
-2.2158202529e-01 -2.8394529223e-01 -1.3017204404e-01
-2.2331054509e-01 -2.8257811069e-01 -1.3017177582e-01
-2.2503906488e-01 -2.8119140863e-01 -1.3017149270e-01
-2.3186522722e-01 -2.7558591962e-01 -1.3017043471e-01
-2.3355467618e-01 -2.7416014671e-01 -1.3017016649e-01
-2.3523436487e-01 -2.7271482348e-01 -1.3016989827e-01
-2.3690429330e-01 -2.7126953006e-01 -1.3016965985e-01
-2.4021483958e-01 -2.6833984256e-01 -1.3016915321e-01
-2.4510741234e-01 -2.6386716962e-01 -1.3016842306e-01
-2.4992187321e-01 -2.5931641459e-01 -1.3016772270e-01
-2.5308594108e-01 -2.5623047352e-01 -1.3016727567e-01
-2.5621092319e-01 -2.5310546160e-01 -1.3016682863e-01
-2.5775390863e-01 -2.5152343512e-01 -1.3016662002e-01
-2.5929686427e-01 -2.4994139373e-01 -1.3016639650e-01
-2.6234373450e-01 -2.4673826993e-01 -1.3016597927e-01
-2.6384764910e-01 -2.4511718750e-01 -1.3016577065e-01
-2.6683592796e-01 -2.4185545743e-01 -1.3016538322e-01
-2.6831054688e-01 -2.4021483958e-01 -1.3016518950e-01
-2.6978513598e-01 -2.3857420683e-01 -1.3016499579e-01
-2.7413085103e-01 -2.3355467618e-01 -1.3016444445e-01
-2.7837890387e-01 -2.2847655416e-01 -1.3016390800e-01
-2.8116211295e-01 -2.2503906488e-01 -1.3016356528e-01
-2.8253906965e-01 -2.2332030535e-01 -1.3016341627e-01
-2.8525391221e-01 -2.1982420981e-01 -1.3016308844e-01
-2.8660154343e-01 -2.1806639433e-01 -1.3016293943e-01
-2.9185545444e-01 -2.1097655594e-01 -1.3016234338e-01
-2.9315429926e-01 -2.0917968452e-01 -1.3016220927e-01
-2.9442381859e-01 -2.0738281310e-01 -1.3016209006e-01
-2.9819336534e-01 -2.0191405714e-01 -1.3016168773e-01
-2.9942381382e-01 -2.0007811487e-01 -1.3016156852e-01
-3.0064451694e-01 -1.9824218750e-01 -1.3016144931e-01
-3.0185547471e-01 -1.9640624523e-01 -1.3016134501e-01
-3.0424803495e-01 -1.9267578423e-01 -1.3016110659e-01
-3.0541992188e-01 -1.9080077112e-01 -1.3016100228e-01
-3.0658203363e-01 -1.8892577291e-01 -1.3016089797e-01
-3.0773437023e-01 -1.8705077469e-01 -1.3016080856e-01
-3.0887693167e-01 -1.8515624106e-01 -1.3016070426e-01
-3.1000974774e-01 -1.8326170743e-01 -1.3016061485e-01
-3.1113281846e-01 -1.8134765327e-01 -1.3016052544e-01
-3.1223630905e-01 -1.7943358421e-01 -1.3016043603e-01
-3.1548827887e-01 -1.7365233600e-01 -1.3016019762e-01
-3.1654295325e-01 -1.7171874642e-01 -1.3016012311e-01
-3.1758788228e-01 -1.6976562142e-01 -1.3016006351e-01
-3.1964844465e-01 -1.6585937142e-01 -1.3015992939e-01
-3.2066404819e-01 -1.6390624642e-01 -1.3015985489e-01
-3.2264646888e-01 -1.5994140506e-01 -1.3015975058e-01
-3.2362303138e-01 -1.5796874464e-01 -1.3015970588e-01
-3.2553711534e-01 -1.5398436785e-01 -1.3015961647e-01
-3.2647460699e-01 -1.5199218690e-01 -1.3015957177e-01
-3.2832029462e-01 -1.4796873927e-01 -1.3015949726e-01
-3.2921874523e-01 -1.4595702291e-01 -1.3015946746e-01
-3.3010742068e-01 -1.4392577112e-01 -1.3015943766e-01
-3.3098632097e-01 -1.4189453423e-01 -1.3015942276e-01
-3.3184570074e-01 -1.3986328244e-01 -1.3015940785e-01
-3.3598631620e-01 -1.2960937619e-01 -1.3015934825e-01
-3.3676758409e-01 -1.2755858898e-01 -1.3015934825e-01
-3.3906248212e-01 -1.2132812291e-01 -1.3015936315e-01
-3.4124022722e-01 -1.1507812142e-01 -1.3015940785e-01
-3.4262695909e-01 -1.1087890714e-01 -1.3015945256e-01
-3.4330075979e-01 -1.0876952857e-01 -1.3015948236e-01
-3.4586912394e-01 -1.0031250119e-01 -1.3015963137e-01
-3.4647458792e-01 -9.8183594644e-02 -1.3015967607e-01
-3.4985351562e-01 -8.5371091962e-02 -1.3016001880e-01
-3.5037109256e-01 -8.3222657442e-02 -1.3016007841e-01
-3.5087889433e-01 -8.1074215472e-02 -1.3016015291e-01
-3.5184568167e-01 -7.6757811010e-02 -1.3016031682e-01
-3.5319334269e-01 -7.0273436606e-02 -1.3016057014e-01
-3.5362303257e-01 -6.8105466664e-02 -1.3016065955e-01
-3.5403320193e-01 -6.5937496722e-02 -1.3016074896e-01
-3.5481444001e-01 -6.1582028866e-02 -1.3016094267e-01
-3.5554686189e-01 -5.7226561010e-02 -1.3016115129e-01
-3.5588866472e-01 -5.5039063096e-02 -1.3016127050e-01
-3.5654297471e-01 -5.0664059818e-02 -1.3016150892e-01
-3.5684570670e-01 -4.8476561904e-02 -1.3016161323e-01
-3.5713866353e-01 -4.6289060265e-02 -1.3016174734e-01
-3.5741209984e-01 -4.4101562351e-02 -1.3016186655e-01
-3.5767576098e-01 -4.1914060712e-02 -1.3016200066e-01
-3.5838866234e-01 -3.5312499851e-02 -1.3016240299e-01
-3.5879883170e-01 -3.0917968601e-02 -1.3016270101e-01
-3.5898438096e-01 -2.8710937127e-02 -1.3016285002e-01
-3.5915037990e-01 -2.6503905654e-02 -1.3016299903e-01
-3.5945311189e-01 -2.2089842707e-02 -1.3016331196e-01
-3.5958006978e-01 -1.9902342930e-02 -1.3016347587e-01
-3.5979491472e-01 -1.5488280915e-02 -1.3016380370e-01
-3.5988280177e-01 -1.3261718675e-02 -1.3016398251e-01
-3.5996094346e-01 -1.1054687202e-02 -1.3016414642e-01
-3.6001953483e-01 -8.8476557285e-03 -1.3016434014e-01
-3.6006835103e-01 -6.6406247206e-03 -1.3016450405e-01
-3.6009764671e-01 -4.4335937127e-03 -1.3016469777e-01
-3.4092772007e-01 -1.9531249563e-05 -1.3016945124e-01
-3.4091797471e-01 2.0703123882e-03 -1.3016963005e-01
-3.4083005786e-01 8.3593744785e-03 -1.3017019629e-01
-3.4070312977e-01 1.2539062649e-02 -1.3017058372e-01
-3.4051758051e-01 1.6718748957e-02 -1.3017098606e-01
-3.4041014314e-01 1.8808593974e-02 -1.3017119467e-01
-3.4029296041e-01 2.0898437127e-02 -1.3017140329e-01
-3.3985349536e-01 2.7148436755e-02 -1.3017204404e-01
-3.3967772126e-01 2.9238279909e-02 -1.3017226756e-01
-3.3908203244e-01 3.5488281399e-02 -1.3017295301e-01
-3.3885741234e-01 3.7558592856e-02 -1.3017317653e-01
-3.3862304688e-01 3.9648436010e-02 -1.3017341495e-01
-3.3837890625e-01 4.1718747467e-02 -1.3017363846e-01
-3.3811521530e-01 4.3789062649e-02 -1.3017389178e-01
-3.3784177899e-01 4.5859374106e-02 -1.3017413020e-01
-3.3754882216e-01 4.7949217260e-02 -1.3017438352e-01
-3.3555662632e-01 6.0332030058e-02 -1.3017590344e-01
-3.3479490876e-01 6.4453125000e-02 -1.3017642498e-01
-3.3439451456e-01 6.6503904760e-02 -1.3017670810e-01
-3.3398437500e-01 6.8554684520e-02 -1.3017697632e-01
-3.3355468512e-01 7.0605464280e-02 -1.3017724454e-01
-3.3311522007e-01 7.2636716068e-02 -1.3017752767e-01
-3.3266600966e-01 7.4687495828e-02 -1.3017779589e-01
-3.3172851801e-01 7.8769527376e-02 -1.3017837703e-01
-3.3124023676e-01 8.0800779164e-02 -1.3017866015e-01
-3.3073240519e-01 8.2832030952e-02 -1.3017895818e-01
-3.3022460341e-01 8.4863282740e-02 -1.3017924130e-01
-3.2969725132e-01 8.6874999106e-02 -1.3017953932e-01
-3.2916015387e-01 8.8906250894e-02 -1.3017983735e-01
-3.2804685831e-01 9.2929683626e-02 -1.3018043339e-01
-3.2687500119e-01 9.6953123808e-02 -1.3018105924e-01
-3.2566404343e-01 1.0095702857e-01 -1.3018167019e-01
-3.2503905892e-01 1.0294921696e-01 -1.3018199801e-01
-3.2242187858e-01 1.1089843512e-01 -1.3018327951e-01
-3.2173827291e-01 1.1287108809e-01 -1.3018359244e-01
-3.2103514671e-01 1.1484374851e-01 -1.3018393517e-01
-3.2032224536e-01 1.1681640148e-01 -1.3018426299e-01
-3.1959959865e-01 1.1878906190e-01 -1.3018460572e-01
-3.1886717677e-01 1.2074218690e-01 -1.3018494844e-01
-3.1812497973e-01 1.2269531190e-01 -1.3018527627e-01
-3.1736326218e-01 1.2464843690e-01 -1.3018561900e-01
-3.1659179926e-01 1.2660156190e-01 -1.3018596172e-01
-3.1581053138e-01 1.2853515148e-01 -1.3018630445e-01
-3.1501951814e-01 1.3046874106e-01 -1.3018666208e-01
-3.1420898438e-01 1.3240234554e-01 -1.3018701971e-01
-3.1086912751e-01 1.4007812738e-01 -1.3018845022e-01
-3.0913084745e-01 1.4388671517e-01 -1.3018916547e-01
-3.0824217200e-01 1.4578124881e-01 -1.3018952310e-01
-3.0734375119e-01 1.4765624702e-01 -1.3018989563e-01
-3.0643552542e-01 1.4955078065e-01 -1.3019026816e-01
-3.0363279581e-01 1.5515623987e-01 -1.3019138575e-01
-3.0170896649e-01 1.5886718035e-01 -1.3019214571e-01
-2.9873046279e-01 1.6441406310e-01 -1.3019332290e-01
-2.9771482944e-01 1.6623046994e-01 -1.3019371033e-01
-2.9460936785e-01 1.7167969048e-01 -1.3019488752e-01
-2.9248046875e-01 1.7529296875e-01 -1.3019567728e-01
-2.9140624404e-01 1.7708984017e-01 -1.3019607961e-01
-2.8697264194e-01 1.8417967856e-01 -1.3019770384e-01
-2.8583982587e-01 1.8593749404e-01 -1.3019810617e-01
-2.8469726443e-01 1.8769530952e-01 -1.3019853830e-01
-2.8237304091e-01 1.9117186964e-01 -1.3019935787e-01
-2.7880859375e-01 1.9634765387e-01 -1.3020062447e-01
-2.7389648557e-01 2.0312500000e-01 -1.3020232320e-01
-2.7138671279e-01 2.0646484196e-01 -1.3020318747e-01
-2.6883789897e-01 2.0978514850e-01 -1.3020405173e-01
-2.6753905416e-01 2.1144530177e-01 -1.3020449877e-01
-2.6093748212e-01 2.1955077350e-01 -1.3020670414e-01
-2.5685545802e-01 2.2431640327e-01 -1.3020804524e-01
-2.5546875596e-01 2.2589842975e-01 -1.3020849228e-01
-2.5408202410e-01 2.2746093571e-01 -1.3020895422e-01
-2.5126951933e-01 2.3054687679e-01 -1.3020986319e-01
-2.4985350668e-01 2.3208983243e-01 -1.3021032512e-01
-2.4114257097e-01 2.4113281071e-01 -1.3021308184e-01
-2.3666991293e-01 2.4554686248e-01 -1.3021448255e-01
-2.3515623808e-01 2.4699218571e-01 -1.3021495938e-01
-2.3210936785e-01 2.4986328185e-01 -1.3021589816e-01
-2.2748045623e-01 2.5408202410e-01 -1.3021731377e-01
-2.2434569895e-01 2.5685545802e-01 -1.3021826744e-01
-2.2276367247e-01 2.5824218988e-01 -1.3021874428e-01
-2.1635740995e-01 2.6363280416e-01 -1.3022068143e-01
-2.1311523020e-01 2.6626953483e-01 -1.3022165000e-01
-2.0983397961e-01 2.6886719465e-01 -1.3022261858e-01
-2.0817382634e-01 2.7015623450e-01 -1.3022312522e-01
-2.0651367307e-01 2.7142578363e-01 -1.3022360206e-01
-2.0317381620e-01 2.7394530177e-01 -1.3022457063e-01
-1.9979491830e-01 2.7640625834e-01 -1.3022555411e-01
-1.9638670981e-01 2.7884766459e-01 -1.3022655249e-01
-1.9295898080e-01 2.8123044968e-01 -1.3022755086e-01
-1.8949218094e-01 2.8359374404e-01 -1.3022853434e-01
-1.8774414062e-01 2.8474608064e-01 -1.3022902608e-01
-1.8248046935e-01 2.8816404939e-01 -1.3023053110e-01
-1.7892578244e-01 2.9037109017e-01 -1.3023152947e-01
-1.7535156012e-01 2.9255858064e-01 -1.3023254275e-01
-1.6812500358e-01 2.9677733779e-01 -1.3023455441e-01
-1.6263671219e-01 2.9982420802e-01 -1.3023607433e-01
-1.6079100966e-01 3.0082029104e-01 -1.3023658097e-01
-1.5149413049e-01 3.0560547113e-01 -1.3023909926e-01
-1.4960937202e-01 3.0654296279e-01 -1.3023962080e-01
-1.4772459865e-01 3.0744141340e-01 -1.3024012744e-01
-1.4583984017e-01 3.0835935473e-01 -1.3024063408e-01
-1.4394530654e-01 3.0923828483e-01 -1.3024114072e-01
-1.4014647901e-01 3.1099608541e-01 -1.3024216890e-01
-1.3823242486e-01 3.1183594465e-01 -1.3024267554e-01
-1.3631835580e-01 3.1269529462e-01 -1.3024318218e-01
-1.3053710759e-01 3.1513670087e-01 -1.3024471700e-01
-1.2860351801e-01 3.1593748927e-01 -1.3024520874e-01
-1.2081054598e-01 3.1900390983e-01 -1.3024725020e-01
-1.1689452827e-01 3.2046875358e-01 -1.3024827838e-01
-1.1492187530e-01 3.2119140029e-01 -1.3024878502e-01
-1.1294921488e-01 3.2187500596e-01 -1.3024929166e-01
-1.0899414122e-01 3.2324218750e-01 -1.3025031984e-01
-1.0501953214e-01 3.2457029819e-01 -1.3025133312e-01
-1.0302734375e-01 3.2519531250e-01 -1.3025185466e-01
-9.7021482885e-02 3.2705077529e-01 -1.3025337458e-01
-9.5009766519e-02 3.2763671875e-01 -1.3025388122e-01
-9.2998042703e-02 3.2822266221e-01 -1.3025440276e-01
-9.0986326337e-02 3.2878905535e-01 -1.3025490940e-01
-8.8964842260e-02 3.2933592796e-01 -1.3025541604e-01
-8.4921874106e-02 3.3041015267e-01 -1.3025642931e-01
-8.2890622318e-02 3.3091795444e-01 -1.3025693595e-01
-8.0859370530e-02 3.3142578602e-01 -1.3025744259e-01
-7.8828126192e-02 3.3191406727e-01 -1.3025794923e-01
-7.6787106693e-02 3.3240234852e-01 -1.3025845587e-01
-7.4746094644e-02 3.3285155892e-01 -1.3025896251e-01
-7.0654295385e-02 3.3374997973e-01 -1.3025997579e-01
-6.4501948655e-02 3.3499997854e-01 -1.3026148081e-01
-6.2441404909e-02 3.3539062738e-01 -1.3026198745e-01
-6.0380857438e-02 3.3578124642e-01 -1.3026247919e-01
-5.8330077678e-02 3.3613279462e-01 -1.3026298583e-01
-5.6259766221e-02 3.3648437262e-01 -1.3026349247e-01
-5.2128903568e-02 3.3716794848e-01 -1.3026449084e-01
-4.5917969197e-02 3.3806639910e-01 -1.3026598096e-01
-4.3837890029e-02 3.3833983541e-01 -1.3026648760e-01
-3.5517577082e-02 3.3931639791e-01 -1.3026845455e-01
-3.1357422471e-02 3.3972656727e-01 -1.3026945293e-01
-2.5097655132e-02 3.4025388956e-01 -1.3027091324e-01
-1.6738280654e-02 3.4078124166e-01 -1.3027286530e-01
-1.0458984412e-02 3.4103515744e-01 -1.3027432561e-01
-8.3691403270e-03 3.4109374881e-01 -1.3027480245e-01
-6.2792967074e-03 3.4113281965e-01 -1.3027527928e-01
0.0000000000e+00 3.4119141102e-01 -1.3027670979e-01
2.0996092353e-03 3.4119141102e-01 -1.3027718663e-01
4.1894530877e-03 3.4117186069e-01 -1.3027766347e-01
1.0468749329e-02 3.4103515744e-01 -1.3027909398e-01
1.2558593415e-02 3.4097656608e-01 -1.3027955592e-01
1.6748046502e-02 3.4080076218e-01 -1.3028049469e-01
2.5107420981e-02 3.4029296041e-01 -1.3028235734e-01
2.7197264135e-02 3.4013670683e-01 -1.3028283417e-01
2.9277343303e-02 3.3996093273e-01 -1.3028328121e-01
3.1367186457e-02 3.3976560831e-01 -1.3028374314e-01
4.5927733183e-02 3.3812499046e-01 -1.3028691709e-01
4.7998044640e-02 3.3783203363e-01 -1.3028736413e-01
5.0068359822e-02 3.3753904700e-01 -1.3028781116e-01
5.2138671279e-02 3.3722656965e-01 -1.3028825819e-01
5.8339841664e-02 3.3621093631e-01 -1.3028958440e-01
6.2460936606e-02 3.3546873927e-01 -1.3029046357e-01
6.4521484077e-02 3.3507812023e-01 -1.3029089570e-01
7.2724610567e-02 3.3339843154e-01 -1.3029262424e-01
7.8847654164e-02 3.3201169968e-01 -1.3029389083e-01
8.4951169789e-02 3.3050781488e-01 -1.3029515743e-01
8.6972653866e-02 3.2998046279e-01 -1.3029557467e-01
8.9003905654e-02 3.2943359017e-01 -1.3029599190e-01
9.3037106097e-02 3.2832029462e-01 -1.3029681146e-01
9.5048822463e-02 3.2775390148e-01 -1.3029721379e-01
9.7060546279e-02 3.2716795802e-01 -1.3029763103e-01
1.0106445104e-01 3.2595703006e-01 -1.3029843569e-01
1.0505858809e-01 3.2468748093e-01 -1.3029922545e-01
1.0904296488e-01 3.2337889075e-01 -1.3030003011e-01
1.1102538556e-01 3.2269531488e-01 -1.3030041754e-01
1.1299804598e-01 3.2201170921e-01 -1.3030081987e-01
1.1694335938e-01 3.2060545683e-01 -1.3030157983e-01
1.2086913735e-01 3.1914061308e-01 -1.3030235469e-01
1.2282226235e-01 3.1839841604e-01 -1.3030274212e-01
1.3638672233e-01 3.1283202767e-01 -1.3030534983e-01
1.3830077648e-01 3.1199216843e-01 -1.3030570745e-01
1.4402343333e-01 3.0939453840e-01 -1.3030679524e-01
1.4781250060e-01 3.0761718750e-01 -1.3030749559e-01
1.4969725907e-01 3.0669921637e-01 -1.3030785322e-01
1.5157225728e-01 3.0578124523e-01 -1.3030819595e-01
1.6273437440e-01 2.9999998212e-01 -1.3031023741e-01
1.6457030177e-01 2.9898437858e-01 -1.3031056523e-01
1.7004881799e-01 2.9591795802e-01 -1.3031154871e-01
1.7366211116e-01 2.9380857944e-01 -1.3031218946e-01
1.7725585401e-01 2.9166015983e-01 -1.3031283021e-01
1.7905272543e-01 2.9056641459e-01 -1.3031314313e-01
1.8259765208e-01 2.8833982348e-01 -1.3031375408e-01
1.8612304330e-01 2.8609374166e-01 -1.3031436503e-01
1.8788085878e-01 2.8494140506e-01 -1.3031467795e-01
1.8961913884e-01 2.8378906846e-01 -1.3031496108e-01
1.9309569895e-01 2.8142577410e-01 -1.3031554222e-01
1.9481444359e-01 2.8025388718e-01 -1.3031584024e-01
1.9653320312e-01 2.7904295921e-01 -1.3031612337e-01
1.9824218750e-01 2.7783203125e-01 -1.3031640649e-01
2.0499999821e-01 2.7289062738e-01 -1.3031752408e-01
2.0999023318e-01 2.6906248927e-01 -1.3031832874e-01
2.1328124404e-01 2.6648437977e-01 -1.3031886518e-01
2.1815429628e-01 2.6249998808e-01 -1.3031962514e-01
2.2610351443e-01 2.5568360090e-01 -1.3032084703e-01
2.2766600549e-01 2.5429686904e-01 -1.3032108545e-01
2.2922851145e-01 2.5291013718e-01 -1.3032132387e-01
2.3077148199e-01 2.5148436427e-01 -1.3032154739e-01
2.3383788764e-01 2.4863280356e-01 -1.3032199442e-01
2.3536132276e-01 2.4720703065e-01 -1.3032221794e-01
2.3687499762e-01 2.4576170743e-01 -1.3032244146e-01
2.4135741591e-01 2.4134765565e-01 -1.3032308221e-01
2.4576170743e-01 2.3687499762e-01 -1.3032369316e-01
2.4721679091e-01 2.3535156250e-01 -1.3032388687e-01
2.5007811189e-01 2.3230467737e-01 -1.3032428920e-01
2.5571289659e-01 2.2609373927e-01 -1.3032503426e-01
2.5708982348e-01 2.2453124821e-01 -1.3032521307e-01
2.5983399153e-01 2.2136718035e-01 -1.3032555580e-01
2.6118162274e-01 2.1976561844e-01 -1.3032571971e-01
2.6385742426e-01 2.1654295921e-01 -1.3032606244e-01
2.6910156012e-01 2.0999999344e-01 -1.3032668829e-01
2.7038085461e-01 2.0833984017e-01 -1.3032683730e-01
2.7291992307e-01 2.0501953363e-01 -1.3032712042e-01
2.7541014552e-01 2.0164062083e-01 -1.3032740355e-01
2.8264647722e-01 1.9136717916e-01 -1.3032816350e-01
2.8380858898e-01 1.8962889910e-01 -1.3032826781e-01
2.8497070074e-01 1.8789061904e-01 -1.3032838702e-01
2.8725585341e-01 1.8437500298e-01 -1.3032861054e-01
2.9595702887e-01 1.7005859315e-01 -1.3032935560e-01
2.9699218273e-01 1.6824218631e-01 -1.3032943010e-01
2.9802733660e-01 1.6642577946e-01 -1.3032950461e-01
2.9904296994e-01 1.6458983719e-01 -1.3032957911e-01
3.0103513598e-01 1.6089843214e-01 -1.3032971323e-01
3.0202147365e-01 1.5906248987e-01 -1.3032977283e-01
3.0298826098e-01 1.5720702708e-01 -1.3032983243e-01
3.0394530296e-01 1.5533202887e-01 -1.3032989204e-01
3.0583006144e-01 1.5160155296e-01 -1.3032999635e-01
3.0675780773e-01 1.4972655475e-01 -1.3033004105e-01
3.0766600370e-01 1.4783202112e-01 -1.3033008575e-01
3.0857419968e-01 1.4593750238e-01 -1.3033013046e-01
3.0946287513e-01 1.4404296875e-01 -1.3033017516e-01
3.1206053495e-01 1.3832031190e-01 -1.3033026457e-01
3.1290039420e-01 1.3640624285e-01 -1.3033029437e-01
3.1373044848e-01 1.3449218869e-01 -1.3033032417e-01
3.1455078721e-01 1.3255858421e-01 -1.3033032417e-01
3.1615233421e-01 1.2869140506e-01 -1.3033036888e-01
3.1921875477e-01 1.2089843303e-01 -1.3033038378e-01
3.1996092200e-01 1.1892578006e-01 -1.3033038378e-01
3.2068359852e-01 1.1697265506e-01 -1.3033038378e-01
3.2345703244e-01 1.0906250030e-01 -1.3033032417e-01
3.2411131263e-01 1.0707031190e-01 -1.3033030927e-01
3.2784178853e-01 9.5078125596e-02 -1.3033011556e-01
3.2841795683e-01 9.3066401780e-02 -1.3033007085e-01
3.2898437977e-01 9.1035157442e-02 -1.3033002615e-01
3.2953125238e-01 8.9023433626e-02 -1.3032998145e-01
3.3006834984e-01 8.6992181838e-02 -1.3032992184e-01
3.3059570193e-01 8.4960937500e-02 -1.3032987714e-01
3.3161133528e-01 8.0898433924e-02 -1.3032974303e-01
3.3350583911e-01 7.2734370828e-02 -1.3032947481e-01
3.3394530416e-01 7.0703126490e-02 -1.3032940030e-01
3.3437499404e-01 6.8652339280e-02 -1.3032932580e-01
3.3478516340e-01 6.6582031548e-02 -1.3032923639e-01
3.3518552780e-01 6.4531251788e-02 -1.3032914698e-01
3.3595702052e-01 6.0410153121e-02 -1.3032896817e-01
3.3631834388e-01 5.8359373361e-02 -1.3032887876e-01
3.3701172471e-01 5.4218750447e-02 -1.3032867014e-01
3.3764648438e-01 5.0078123808e-02 -1.3032844663e-01
3.3823242784e-01 4.5937497169e-02 -1.3032822311e-01
3.3850586414e-01 4.3867185712e-02 -1.3032810390e-01
3.3876952529e-01 4.1777342558e-02 -1.3032799959e-01
3.3902344108e-01 3.9707031101e-02 -1.3032786548e-01
3.3925780654e-01 3.7617187947e-02 -1.3032773137e-01
3.3969727159e-01 3.3457029611e-02 -1.3032747805e-01
3.4007811546e-01 2.9277343303e-02 -1.3032720983e-01
3.4025388956e-01 2.7207029983e-02 -1.3032707572e-01
3.4055662155e-01 2.3027343675e-02 -1.3032677770e-01
3.4092772007e-01 1.6738280654e-02 -1.3032631576e-01
3.4110349417e-01 1.2558593415e-02 -1.3032598794e-01
3.4117186069e-01 1.0468749329e-02 -1.3032582402e-01
3.4127929807e-01 6.2890625559e-03 -1.3032548130e-01
3.4132811427e-01 2.0898436196e-03 -1.3032513857e-01
3.4132811427e-01 -0.0000000000e+00 -1.3032494485e-01
3.4132811427e-01 -2.0898436196e-03 -1.3032476604e-01
3.4130859375e-01 -4.1992184706e-03 -1.3032458723e-01
3.4126952291e-01 -6.2890625559e-03 -1.3032439351e-01
3.4123045206e-01 -8.3789061755e-03 -1.3032421470e-01
3.4117186069e-01 -1.0468749329e-02 -1.3032400608e-01
3.4101560712e-01 -1.4648437500e-02 -1.3032360375e-01
3.4091797471e-01 -1.6757812351e-02 -1.3032341003e-01
3.4081053734e-01 -1.8847655505e-02 -1.3032320142e-01
3.4024414420e-01 -2.7207029983e-02 -1.3032235205e-01
3.4006834030e-01 -2.9277343303e-02 -1.3032212853e-01
3.3988279104e-01 -3.1367186457e-02 -1.3032190502e-01
3.3924803138e-01 -3.7617187947e-02 -1.3032121956e-01
3.3900389075e-01 -3.9707031101e-02 -1.3032098114e-01
3.3792966604e-01 -4.8007812351e-02 -1.3032001257e-01
3.3731445670e-01 -5.2148435265e-02 -1.3031952083e-01
3.3698242903e-01 -5.4218750447e-02 -1.3031926751e-01
3.3664062619e-01 -5.6289061904e-02 -1.3031899929e-01
3.3592772484e-01 -6.0410153121e-02 -1.3031849265e-01
3.3515623212e-01 -6.4531251788e-02 -1.3031795621e-01
3.3391600847e-01 -7.0683591068e-02 -1.3031713665e-01
3.3254882693e-01 -7.6816402376e-02 -1.3031628728e-01
3.3207029104e-01 -7.8867182136e-02 -1.3031600416e-01
3.3158200979e-01 -8.0898433924e-02 -1.3031572104e-01
3.2720702887e-01 -9.7070313990e-02 -1.3031332195e-01
3.2599610090e-01 -1.0107421875e-01 -1.3031269610e-01
3.2407227159e-01 -1.0707031190e-01 -1.3031174242e-01
3.2273435593e-01 -1.1103515327e-01 -1.3031110168e-01
3.2063475251e-01 -1.1695311964e-01 -1.3031010330e-01
3.1991210580e-01 -1.1890624464e-01 -1.3030977547e-01
3.1842774153e-01 -1.2283203006e-01 -1.3030909002e-01
3.1610351801e-01 -1.2867186964e-01 -1.3030804694e-01
3.1531250477e-01 -1.3060545921e-01 -1.3030770421e-01
3.1450194120e-01 -1.3253906369e-01 -1.3030736148e-01
3.1368163228e-01 -1.3447265327e-01 -1.3030698895e-01
3.1201171875e-01 -1.3830077648e-01 -1.3030628860e-01
3.1115233898e-01 -1.4021484554e-01 -1.3030593097e-01
3.1028318405e-01 -1.4212889969e-01 -1.3030555844e-01
3.0669921637e-01 -1.4968749881e-01 -1.3030408323e-01
3.0484375358e-01 -1.5343749523e-01 -1.3030333817e-01
3.0388671160e-01 -1.5531249344e-01 -1.3030296564e-01
3.0292966962e-01 -1.5716797113e-01 -1.3030257821e-01
3.0196288228e-01 -1.5902343392e-01 -1.3030219078e-01
3.0097654462e-01 -1.6087889671e-01 -1.3030181825e-01
2.9998046160e-01 -1.6271483898e-01 -1.3030143082e-01
2.9898437858e-01 -1.6455078125e-01 -1.3030104339e-01
2.9589843750e-01 -1.7003905773e-01 -1.3029986620e-01
2.9378905892e-01 -1.7365233600e-01 -1.3029907644e-01
2.9271483421e-01 -1.7544920743e-01 -1.3029867411e-01
2.9163086414e-01 -1.7724609375e-01 -1.3029827178e-01
2.9053708911e-01 -1.7902342975e-01 -1.3029786944e-01
2.8832030296e-01 -1.8257811666e-01 -1.3029704988e-01
2.8605467081e-01 -1.8609374762e-01 -1.3029623032e-01
2.8490233421e-01 -1.8785156310e-01 -1.3029581308e-01
2.8374999762e-01 -1.8958984315e-01 -1.3029539585e-01
2.8020507097e-01 -1.9478514791e-01 -1.3029414415e-01
2.7534177899e-01 -2.0160156488e-01 -1.3029244542e-01
2.7409178019e-01 -2.0328123868e-01 -1.3029201329e-01
2.7284178138e-01 -2.0496092737e-01 -1.3029158115e-01
2.7030274272e-01 -2.0830076933e-01 -1.3029071689e-01
2.6902341843e-01 -2.0994140208e-01 -1.3029026985e-01
2.6642578840e-01 -2.1322265267e-01 -1.3028940558e-01
2.6510742307e-01 -2.1486327052e-01 -1.3028895855e-01
2.6245117188e-01 -2.1810546517e-01 -1.3028807938e-01
2.5838866830e-01 -2.2289061546e-01 -1.3028673828e-01
2.5701171160e-01 -2.2447265685e-01 -1.3028629124e-01
2.5142577291e-01 -2.3070311546e-01 -1.3028447330e-01
2.4568359554e-01 -2.3679687083e-01 -1.3028264046e-01
2.4127928913e-01 -2.4128906429e-01 -1.3028123975e-01
2.3979490995e-01 -2.4275390804e-01 -1.3028077781e-01
2.3830077052e-01 -2.4421875179e-01 -1.3028031588e-01
2.3679687083e-01 -2.4568359554e-01 -1.3027983904e-01
2.3376952112e-01 -2.4857421219e-01 -1.3027890027e-01
2.3223632574e-01 -2.5000000000e-01 -1.3027842343e-01
2.3069335520e-01 -2.5140625238e-01 -1.3027796149e-01
2.2602538764e-01 -2.5560545921e-01 -1.3027653098e-01
2.2445312142e-01 -2.5699219108e-01 -1.3027605414e-01
2.2287109494e-01 -2.5835937262e-01 -1.3027557731e-01
2.2127929330e-01 -2.5972655416e-01 -1.3027508557e-01
2.1967773139e-01 -2.6107421517e-01 -1.3027460873e-01
2.1807616949e-01 -2.6242187619e-01 -1.3027411699e-01
2.1320311725e-01 -2.6638671756e-01 -1.3027267158e-01
2.0660156012e-01 -2.7154296637e-01 -1.3027071953e-01
2.0493163168e-01 -2.7279296517e-01 -1.3027022779e-01
2.0325194299e-01 -2.7404296398e-01 -1.3026973605e-01
2.0156249404e-01 -2.7529296279e-01 -1.3026924431e-01
1.9987304509e-01 -2.7652344108e-01 -1.3026875257e-01
1.9817382097e-01 -2.7773436904e-01 -1.3026826084e-01
1.8955077231e-01 -2.8369140625e-01 -1.3026577234e-01
1.8780273199e-01 -2.8484374285e-01 -1.3026528060e-01
1.7539061606e-01 -2.9263672233e-01 -1.3026177883e-01
1.7359374464e-01 -2.9371091723e-01 -1.3026127219e-01
1.7178711295e-01 -2.9476562142e-01 -1.3026076555e-01
1.6265624762e-01 -2.9988279939e-01 -1.3025824726e-01
1.5896484256e-01 -3.0185547471e-01 -1.3025723398e-01
1.5710936487e-01 -3.0283203721e-01 -1.3025672734e-01
1.5524414182e-01 -3.0378904939e-01 -1.3025622070e-01
1.5337890387e-01 -3.0472654104e-01 -1.3025571406e-01
1.4585937560e-01 -3.0839842558e-01 -1.3025368750e-01
1.4015625417e-01 -3.1103515625e-01 -1.3025215268e-01
1.3631835580e-01 -3.1271484494e-01 -1.3025112450e-01
1.3440428674e-01 -3.1355467439e-01 -1.3025061786e-01
1.3247069716e-01 -3.1437498331e-01 -1.3025011122e-01
1.2860351801e-01 -3.1597656012e-01 -1.3024908304e-01
1.2471679598e-01 -3.1751951575e-01 -1.3024806976e-01
1.2081054598e-01 -3.1902343035e-01 -1.3024704158e-01
1.1096679419e-01 -3.2257813215e-01 -1.3024449348e-01
1.0700195283e-01 -3.2390624285e-01 -1.3024348021e-01
1.0101561993e-01 -3.2582029700e-01 -1.3024194539e-01
9.9013671279e-02 -3.2642576098e-01 -1.3024143875e-01
9.4999998808e-02 -3.2761716843e-01 -1.3024042547e-01
7.8808590770e-02 -3.3187499642e-01 -1.3023637235e-01
6.4482420683e-02 -3.3494138718e-01 -1.3023282588e-01
6.2431640923e-02 -3.3533203602e-01 -1.3023233414e-01
6.0371093452e-02 -3.3570310473e-01 -1.3023182750e-01
5.6249998510e-02 -3.3642578125e-01 -1.3023082912e-01
5.4179687053e-02 -3.3675780892e-01 -1.3023032248e-01
5.2109375596e-02 -3.3708983660e-01 -1.3022981584e-01
5.0039060414e-02 -3.3740234375e-01 -1.3022932410e-01
4.7968748957e-02 -3.3769530058e-01 -1.3022883236e-01
4.3828122318e-02 -3.3826172352e-01 -1.3022783399e-01
3.5507813096e-02 -3.3921873569e-01 -1.3022585213e-01
3.3427733928e-02 -3.3943358064e-01 -1.3022536039e-01
3.1347654760e-02 -3.3962890506e-01 -1.3022486866e-01
2.5087889284e-02 -3.4015625715e-01 -1.3022340834e-01
2.2998046130e-02 -3.4029296041e-01 -1.3022290170e-01
1.6728514805e-02 -3.4066405892e-01 -1.3022145629e-01
8.3691403270e-03 -3.4095701575e-01 -1.3021951914e-01
4.1796872392e-03 -3.4103515744e-01 -1.3021856546e-01
2.0898436196e-03 -3.4105467796e-01 -1.3021808863e-01
0.0000000000e+00 -3.4105467796e-01 -1.3021761179e-01
-2.0996092353e-03 -3.4105467796e-01 -1.3021713495e-01
-6.2792967074e-03 -3.4099608660e-01 -1.3021618128e-01
-1.2558593415e-02 -3.4082031250e-01 -1.3021476567e-01
-1.4648437500e-02 -3.4074217081e-01 -1.3021428883e-01
-1.8828123808e-02 -3.4052732587e-01 -1.3021335006e-01
-3.1347654760e-02 -3.3958983421e-01 -1.3021059334e-01
-3.5507813096e-02 -3.3917969465e-01 -1.3020966947e-01
-4.1748046875e-02 -3.3847656846e-01 -1.3020831347e-01
-5.0039060414e-02 -3.3734375238e-01 -1.3020652533e-01
-5.4179687053e-02 -3.3669921756e-01 -1.3020563126e-01
-5.6240234524e-02 -3.3636718988e-01 -1.3020518422e-01
-5.8300778270e-02 -3.3601561189e-01 -1.3020475209e-01
-6.4482420683e-02 -3.3488279581e-01 -1.3020344079e-01
-6.6533200443e-02 -3.3447265625e-01 -1.3020300865e-01
-6.8583980203e-02 -3.3406248689e-01 -1.3020257652e-01
-7.0634767413e-02 -3.3363279700e-01 -1.3020214438e-01
-7.2675779462e-02 -3.3318358660e-01 -1.3020171225e-01
-7.4716791511e-02 -3.3273437619e-01 -1.3020129502e-01
-8.0830074847e-02 -3.3128905296e-01 -1.3020002842e-01
-8.2861326635e-02 -3.3080077171e-01 -1.3019961119e-01
-8.6914062500e-02 -3.2974609733e-01 -1.3019877672e-01
-9.4980463386e-02 -3.2751953602e-01 -1.3019713759e-01
-1.0098632425e-01 -3.2570311427e-01 -1.3019591570e-01
-1.0298828036e-01 -3.2507812977e-01 -1.3019551337e-01
-1.0498046875e-01 -3.2445311546e-01 -1.3019512594e-01
-1.0696288943e-01 -3.2378906012e-01 -1.3019472361e-01
-1.1092773080e-01 -3.2246091962e-01 -1.3019393384e-01
-1.1291015148e-01 -3.2175779343e-01 -1.3019353151e-01
-1.2077148259e-01 -3.1888669729e-01 -1.3019199669e-01
-1.2272460759e-01 -3.1814453006e-01 -1.3019162416e-01
-1.2855468690e-01 -3.1583982706e-01 -1.3019047678e-01
-1.3434569538e-01 -3.1341797113e-01 -1.3018937409e-01
-1.3626952469e-01 -3.1257811189e-01 -1.3018901646e-01
-1.4008788764e-01 -3.1087890267e-01 -1.3018828630e-01
-1.4199218154e-01 -3.1001952291e-01 -1.3018792868e-01
-1.4389647543e-01 -3.0914062262e-01 -1.3018757105e-01
-1.4579100907e-01 -3.0824217200e-01 -1.3018722832e-01
-1.4767578244e-01 -3.0734375119e-01 -1.3018687069e-01
-1.4956054091e-01 -3.0642578006e-01 -1.3018651307e-01
-1.5331053734e-01 -3.0457031727e-01 -1.3018582761e-01
-1.5703125298e-01 -3.0267578363e-01 -1.3018512726e-01
-1.5888671577e-01 -3.0169922113e-01 -1.3018479943e-01
-1.6441406310e-01 -2.9871094227e-01 -1.3018380105e-01
-1.6624023020e-01 -2.9769530892e-01 -1.3018347323e-01
-1.6806639731e-01 -2.9667967558e-01 -1.3018314540e-01
-1.6988280416e-01 -2.9564452171e-01 -1.3018281758e-01
-1.7168945074e-01 -2.9458984733e-01 -1.3018250465e-01
-1.7349608243e-01 -2.9353514314e-01 -1.3018217683e-01
-1.7529296875e-01 -2.9246091843e-01 -1.3018186390e-01
-1.7708007991e-01 -2.9138672352e-01 -1.3018155098e-01
