VERSION 0.7
FIELDS x y z
SIZE 4 4 4
TYPE F F F
COUNT 1 1 1
WIDTH 921
HEIGHT 1
VIEWPOINT 0.0 0.0 0.0 1.0 0.0 0.0 0.0
POINTS 921
DATA ascii
-2.0437598228e+00 -6.3164062500e+00 7.9102694988e-01
-2.1628906727e+00 -6.0448827744e+00 7.6497620344e-01
-2.2125194073e+00 -5.9522652626e+00 7.5663548708e-01
-2.3370702267e+00 -5.8440427780e+00 7.4994289875e-01
-2.3984375000e+00 -5.7903709412e+00 7.4677872658e-01
-2.6029393673e+00 -5.6828708649e+00 7.4477505684e-01
-2.6403319836e+00 -5.6723241806e+00 7.4550098181e-01
-2.7147655487e+00 -5.6499414444e+00 7.4688327312e-01
-2.7894139290e+00 -5.6273436546e+00 7.4836331606e-01
-2.9200389385e+00 -5.6280856133e+00 7.5548237562e-01
-3.0155565739e+00 -5.6417183876e+00 7.6222294569e-01
-3.0639159679e+00 -5.6485543251e+00 7.6567238569e-01
-3.1126952171e+00 -5.6554098129e+00 7.6917541027e-01
-3.3697166443e+00 -5.7817773819e+00 7.9737514257e-01
2.4704198837e+00 4.4239649773e+00 5.1193779707e-01
2.5247850418e+00 4.3937692642e+00 5.1199024916e-01
1.4383789301e+00 1.4741210938e+00 2.0808923244e-01
1.4455077648e+00 1.4633593559e+00 2.0781838894e-01
1.4526269436e+00 1.4526171684e+00 2.0755586028e-01
1.4741015434e+00 1.4383398294e+00 2.0808587968e-01
1.5069726706e+00 1.4347460270e+00 2.1022531390e-01
1.5421776772e+00 1.4503320456e+00 2.1389199793e-01
2.0429003239e+00 1.4957811832e+00 2.5581365824e-01
2.0543260574e+00 1.4657616615e+00 2.5497183204e-01
2.0653710365e+00 1.4545898438e+00 2.5522994995e-01
7.1959958076e+00 4.8082032204e+00 8.7440013885e-01
7.1729297638e+00 4.7293944359e+00 8.6805588007e-01
7.2058005333e+00 4.6251950264e+00 8.6509931087e-01
7.2920117378e+00 4.5551757812e+00 8.6867249012e-01
7.3630466461e+00 4.5369725227e+00 8.7380111217e-01
2.1029784679e+00 -1.4428124428e+00 2.5766980648e-01
2.0800096989e+00 -1.4458984137e+00 2.5593769550e-01
2.0653026104e+00 -1.4545507431e+00 2.5522172451e-01
2.0542480946e+00 -1.4657031298e+00 2.5496256351e-01
2.0428025723e+00 -1.4957031012e+00 2.5580170751e-01
2.0456445217e+00 -1.5171483755e+00 2.5731721520e-01
6.7431931496e+00 -5.4650974274e+00 8.7694740295e-01
6.7510838509e+00 -5.5404686928e+00 8.8237822056e-01
6.4866795540e+00 -5.4580664635e+00 8.5651081800e-01
6.4367966652e+00 -5.6916599274e+00 8.6811012030e-01
6.3659567833e+00 -5.6990036964e+00 8.6325705051e-01
6.2695798874e+00 -5.6824216843e+00 8.5489886999e-01
6.3079295158e+00 -5.7880663872e+00 8.6495518684e-01
1.5420604944e+00 -1.4502342939e+00 2.1387487650e-01
1.5069042444e+00 -1.4347070456e+00 2.1021585166e-01
1.4383007288e+00 -1.4740428925e+00 2.0807813108e-01
1.0263574123e+00 -4.8481249809e+00 5.0068032742e-01
9.9531245232e-01 -4.8481054306e+00 5.0003743172e-01
9.6434569359e-01 -4.8480663300e+00 4.9941459298e-01
9.3345701694e-01 -4.8480467796e+00 4.9881261587e-01
8.7188476324e-01 -4.8479881287e+00 4.9766883254e-01
8.4121090174e-01 -4.8479685783e+00 4.9712744355e-01
7.8814452887e-01 -4.8983201981e+00 5.0126016140e-01
-2.1825683117e+00 -6.2199411392e+00 6.6599011421e-01
-2.2215428352e+00 -6.0907225609e+00 6.5502434969e-01
-2.2650976181e+00 -5.9810934067e+00 6.4617401361e-01
-2.2957031727e+00 -5.9514060020e+00 6.4447593689e-01
-2.3261523247e+00 -5.9218554497e+00 6.4281064272e-01
-2.3564355373e+00 -5.8924608231e+00 6.4117699862e-01
-2.3865623474e+00 -5.8632030487e+00 6.3957440853e-01
-2.4165430069e+00 -5.8340821266e+00 6.3800305128e-01
-2.4463768005e+00 -5.8050780296e+00 6.3646221161e-01
-2.5077147484e+00 -5.7523436546e+00 6.3400596380e-01
-2.5452733040e+00 -5.7420701981e+00 6.3458180428e-01
-2.6961815357e+00 -5.7006249428e+00 6.3712531328e-01
-2.7341015339e+00 -5.6901950836e+00 6.3782197237e-01
-2.7720994949e+00 -5.6797266006e+00 6.3854259253e-01
-2.8101756573e+00 -5.6692380905e+00 6.3929039240e-01
-2.8538377285e+00 -5.6696090698e+00 6.4129501581e-01
-2.9037206173e+00 -5.6816210747e+00 6.4465916157e-01
-2.9541406631e+00 -5.6937890053e+00 6.4808380604e-01
-3.0565721989e+00 -5.7184567451e+00 6.5511161089e-01
-3.1086230278e+00 -5.7309765816e+00 6.5871906281e-01
-3.2519824505e+00 -5.8235936165e+00 6.7390191555e-01
-3.3512792587e+00 -5.9158396721e+00 6.8694055080e-01
2.4929687977e+00 4.4007029533e+00 4.1969794035e-01
2.5247752666e+00 4.3937692642e+00 4.2050680518e-01
1.4266210794e+00 1.4984179735e+00 1.7168249190e-01
1.4295214415e+00 1.4831249714e+00 1.7093405128e-01
1.4583104849e+00 1.4405077696e+00 1.7009663582e-01
1.4690331221e+00 1.4333983660e+00 1.7031773925e-01
1.4830663204e+00 1.4294335842e+00 1.7092442513e-01
1.4983397722e+00 1.4265428782e+00 1.7167384923e-01
1.5212987661e+00 1.4307030439e+00 1.7329490185e-01
2.0388476849e+00 1.4736717939e+00 2.0875287056e-01
2.0717968941e+00 1.4401757717e+00 2.0937703550e-01
7.1488180161e+00 4.7766795158e+00 7.1345317364e-01
7.1552243233e+00 4.6549801826e+00 7.0833891630e-01
7.2219529152e+00 4.5732421875e+00 7.0933467150e-01
7.2809863091e+00 4.5482811928e+00 7.1237915754e-01
7.3373827934e+00 4.5211520195e+00 7.1514075994e-01
2.0917186737e+00 -1.4350975752e+00 2.1049645543e-01
2.0578613281e+00 -1.4493163824e+00 2.0886266232e-01
2.0473437309e+00 -1.4608007669e+00 2.0870102942e-01
2.0353319645e+00 -1.5094921589e+00 2.1027429402e-01
6.9855566025e+00 -5.6615233421e+00 7.4613982439e-01
6.5206737518e+00 -5.4866795540e+00 7.0715451241e-01
6.4558200836e+00 -5.6383004189e+00 7.1125888824e-01
6.4205465317e+00 -5.7478904724e+00 7.1508967876e-01
6.3228220940e+00 -5.7306833267e+00 7.0810794830e-01
6.4253025055e+00 -5.8957810402e+00 7.2362262011e-01
1.5212402344e+00 -1.4306640625e+00 1.7328828573e-01
1.4830077887e+00 -1.4293944836e+00 1.7091760039e-01
1.4689648151e+00 -1.4333593845e+00 1.7031052709e-01
1.4333593845e+00 -1.4689843655e+00 1.7031130195e-01
1.4294238091e+00 -1.4830468893e+00 1.7092235386e-01
1.4265234470e+00 -1.4983397722e+00 1.7167107761e-01
1.4307421446e+00 -1.5213476419e+00 1.7329911888e-01
1.0255565643e+00 -4.8443360329e+00 4.1089528799e-01
9.9453121424e-01 -4.8443164825e+00 4.1036817431e-01
9.3272459507e-01 -4.8442382812e+00 4.0936386585e-01
7.8423827887e-01 -4.8739843369e+00 4.0965002775e-01
7.8494137526e-01 -5.0767774582e+00 4.2628180981e-01
-2.2373340130e+00 -6.5034766197e+00 5.7070517540e-01
-2.2289648056e+00 -6.2295703888e+00 5.4902672768e-01
-2.2489647865e+00 -6.1658983231e+00 5.4462355375e-01
-2.2879881859e+00 -6.0415430069e+00 5.3607922792e-01
-2.3457520008e+00 -5.9717774391e+00 5.3240174055e-01
-2.3763866425e+00 -5.9423437119e+00 5.3106850386e-01
-2.4068651199e+00 -5.9130468369e+00 5.2976167202e-01
-2.4371874332e+00 -5.8839058876e+00 5.2847993374e-01
-2.4673631191e+00 -5.8548827171e+00 5.2722305059e-01
-2.6038768291e+00 -5.7783007622e+00 5.2592396736e-01
-2.6418359280e+00 -5.7677927017e+00 5.2643287182e-01
-2.6798729897e+00 -5.7572460175e+00 5.2696251869e-01
-2.7561426163e+00 -5.7360739708e+00 5.2807891369e-01
-2.7944042683e+00 -5.7254295349e+00 5.2866852283e-01
-2.8335740566e+00 -5.7164254189e+00 5.2943295240e-01
-2.8831932545e+00 -5.7279295921e+00 5.3212636709e-01
-2.9333105087e+00 -5.7395310402e+00 5.3486698866e-01
-2.9839451313e+00 -5.7512497902e+00 5.3765434027e-01
-1.7017480135e+00 1.1007031441e+01 7.2375029325e-01
-1.6326855421e+00 1.1007167816e+01 7.2308897972e-01
-9.0100586414e-01 6.6340036392e+00 4.3504631519e-01
-8.5017573833e-01 6.5613865852e+00 4.2993429303e-01
-7.0458006859e-01 6.3534374237e+00 4.1538894176e-01
-6.2428706884e-01 6.3385543823e+00 4.1388374567e-01
-5.8743160963e-01 6.3643555641e+00 4.1532492638e-01
-5.5030274391e-01 6.3903512955e+00 4.1679289937e-01
-5.1291990280e-01 6.4165430069e+00 4.1828712821e-01
-4.3732419610e-01 6.4694724083e+00 4.2135673761e-01
-3.9911133051e-01 6.4962301254e+00 4.2293119431e-01
-3.6059570312e-01 6.5231833458e+00 4.2453536391e-01
-2.8269529343e-01 6.5777339935e+00 4.2782646418e-01
-2.4328124523e-01 6.6053318977e+00 4.2951598763e-01
-1.2314452976e-01 6.6894531250e+00 4.3476438522e-01
4.1757810861e-02 6.8049020767e+00 4.4220283628e-01
8.3876952529e-02 6.8343944550e+00 4.4414359331e-01
1.2637695670e-01 6.8641600609e+00 4.4611936808e-01
1.6924804449e-01 6.8941793442e+00 4.4812980294e-01
3.4487304091e-01 7.0200390816e+00 4.5672506094e-01
3.8987302780e-01 7.0527148247e+00 4.5899763703e-01
5.2762693167e-01 7.1527538300e+00 4.6606138349e-01
1.5760351419e+00 1.1093280792e+01 7.2810006142e-01
1.9248827696e+00 1.1093339920e+01 7.3163503408e-01
3.3652148247e+00 1.1093593597e+01 7.5331711769e-01
4.6721191406e+00 1.1086582184e+01 7.8178429604e-01
4.8332028389e+00 1.1086621284e+01 7.8590971231e-01
4.9143748283e+00 1.1086640358e+01 7.8803360462e-01
5.1606149673e+00 1.1086679459e+01 7.9465538263e-01
5.3271188736e+00 1.1086718559e+01 7.9928243160e-01
5.5806055069e+00 1.1086737633e+01 8.0655622482e-01
5.8388476372e+00 1.1086776733e+01 8.1424152851e-01
5.9260253906e+00 1.1086796761e+01 8.1689703465e-01
2.4929590225e+00 4.4006834030e+00 3.2866057754e-01
2.5247752666e+00 4.3937692642e+00 3.2929459214e-01
1.4217578173e+00 1.5117968321e+00 1.3485690951e-01
1.4207714796e+00 1.4922851324e+00 1.3389226794e-01
1.4236816168e+00 1.4770897627e+00 1.3331012428e-01
1.4427050352e+00 1.4427148104e+00 1.3258194923e-01
1.4533300400e+00 1.4356054068e+00 1.3274705410e-01
1.4640136957e+00 1.4285155535e+00 1.3291865587e-01
1.4770116806e+00 1.4236131907e+00 1.3330346346e-01
1.4922070503e+00 1.4207030535e+00 1.3388553262e-01
2.0300488472e+00 1.5249804258e+00 1.6499084234e-01
2.0278027058e+00 1.4847069979e+00 1.6331449151e-01
2.0819725990e+00 1.4283788204e+00 1.6406886280e-01
2.1064844131e+00 1.4262695312e+00 1.6530847549e-01
7.1024022102e+00 4.7456836700e+00 5.5507248640e-01
7.1092381477e+00 4.6874022484e+00 5.5334740877e-01
7.2001757622e+00 4.5594530106e+00 5.5379837751e-01
2.0642967224e+00 -1.4349803925e+00 1.6336767375e-01
2.0504882336e+00 -1.4441210032e+00 1.6297307611e-01
2.0404980183e+00 -1.4558984041e+00 1.6288596392e-01
2.0319530964e+00 -1.4687108994e+00 1.6292028129e-01
2.0277147293e+00 -1.4846678972e+00 1.6330733895e-01
2.0251367092e+00 -1.5019531250e+00 1.6384001076e-01
2.0299217701e+00 -1.5249023438e+00 1.6497942805e-01
6.5506052971e+00 -5.4435544014e+00 5.5346107483e-01
6.5593161583e+00 -5.5882811546e+00 5.5994915962e-01
6.5558004379e+00 -5.6550779343e+00 5.6259995699e-01
6.5682125092e+00 -5.7364645004e+00 5.6667625904e-01
6.5486326218e+00 -5.7905664444e+00 5.6804180145e-01
6.4759273529e+00 -5.7974801064e+00 5.6481045485e-01
6.3621582985e+00 -5.7663278580e+00 5.5796301365e-01
6.4242577553e+00 -5.8948044777e+00 5.6657147408e-01
1.4921483994e+00 -1.4206445217e+00 1.3388074934e-01
1.4639550447e+00 -1.4284570217e+00 1.3291326165e-01
1.4426367283e+00 -1.4426367283e+00 1.3257551193e-01
1.4284570217e+00 -1.4639648199e+00 1.3291391730e-01
1.4206835032e+00 -1.4921875000e+00 1.3388380408e-01
1.4216210842e+00 -1.5116405487e+00 1.3484363258e-01
1.4357128143e+00 -1.5455273390e+00 1.3707773387e-01
1.0558300018e+00 -4.8405466080e+00 3.2194206119e-01
1.0247558355e+00 -4.8405270576e+00 3.2151746750e-01
9.0123045444e-01 -4.8404684067e+00 3.1994655728e-01
8.7052732706e-01 -4.8404493332e+00 3.1958591938e-01
8.0933594704e-01 -4.8404297829e+00 3.1890383363e-01
7.8091794252e-01 -5.0508008003e+00 3.3210769296e-01
-2.2913963795e+00 -6.2822265625e+00 4.3453598022e-01
-2.3495311737e+00 -6.0909371376e+00 4.2422515154e-01
-2.5272948742e+00 -5.8957614899e+00 4.1683164239e-01
-2.5574705601e+00 -5.8664841652e+00 4.1586303711e-01
-2.6716990471e+00 -5.8330078125e+00 4.1690480709e-01
-2.7101855278e+00 -5.8224020004e+00 4.1732910275e-01
-2.9767675400e+00 -5.8245701790e+00 4.2505484819e-01
-3.0283885002e+00 -5.8368945122e+00 4.2730361223e-01
-3.0805468559e+00 -5.8493552208e+00 4.2959043384e-01
-3.2479393482e+00 -5.9878320694e+00 4.4265332818e-01
-1.7017577887e+00 1.1007011414e+01 5.2374219894e-01
-1.5637499094e+00 1.1007304192e+01 5.2280628681e-01
-8.5139644146e-01 6.5708203316e+00 3.1157097220e-01
-8.0205076933e-01 6.5028514862e+00 3.0810818076e-01
-7.0656245947e-01 6.3712692261e+00 3.0144092441e-01
-6.6303712130e-01 6.3333201408e+00 2.9944661260e-01
-5.5113279819e-01 6.3999805450e+00 3.0206876993e-01
-4.7588866949e-01 6.4515819550e+00 3.0420410633e-01
-3.6098632216e-01 6.5303125381e+00 3.0755162239e-01
-3.2211914659e-01 6.5569334030e+00 3.0870747566e-01
-2.0371092856e-01 6.6380076408e+00 3.1229454279e-01
-1.2322265655e-01 6.6931052208e+00 3.1479090452e-01
-4.1406247765e-02 6.7490625381e+00 3.1737622619e-01
9.7656247817e-06 6.7773828506e+00 3.1870043278e-01
4.1767578572e-02 6.8059372902e+00 3.2005012035e-01
1.6923828423e-01 6.8941793442e+00 3.2429113984e-01
2.1250976622e-01 6.9244723320e+00 3.2577085495e-01
2.5617188215e-01 6.9550390244e+00 3.2727745175e-01
3.8964843750e-01 7.0484957695e+00 3.3195570111e-01
5.7374024391e-01 7.1774020195e+00 3.3858808875e-01
2.3484959602e+00 1.1093398094e+01 5.3321951628e-01
3.2217576504e+00 1.1109706879e+01 5.4391473532e-01
3.2888669968e+00 1.1086347580e+01 5.4378151894e-01
4.7524218559e+00 1.1086562157e+01 5.6721997261e-01
5.2470211983e+00 1.1093886375e+01 5.7709044218e-01
5.8426270485e+00 1.1093983650e+01 5.8960980177e-01
2.4703807831e+00 4.4238867760e+00 2.3826752603e-01
2.4929492474e+00 4.4006638527e+00 2.3783548176e-01
2.5247752666e+00 4.3937497139e+00 2.3829481006e-01
3.8285741806e+00 6.4773631096e+00 3.5382223129e-01
3.8864159584e+00 6.3947653770e+00 3.5188797116e-01
3.9480273724e+00 6.3200778961e+00 3.5041937232e-01
4.0282030106e+00 6.3612108231e+00 3.5406264663e-01
4.3365526199e+00 6.5771288872e+00 3.7046149373e-01
4.4458103180e+00 6.6536130905e+00 3.7629935145e-01
4.5585641861e+00 6.7325582504e+00 3.8233846426e-01
4.7953023911e+00 6.8983006477e+00 3.9506483078e-01
5.0483789444e+00 7.0755076408e+00 4.0872940421e-01
5.1816110611e+00 7.1687889099e+00 4.1594687104e-01
8.1230955124e+00 1.1094355583e+01 6.4659237862e-01
8.9916791916e+00 1.1094491959e+01 6.7154067755e-01
1.4127831459e+00 1.5022264719e+00 9.6973247826e-02
1.4149804115e+00 1.4862109423e+00 9.6496887505e-02
1.4179100990e+00 1.4710937738e+00 9.6079267561e-02
1.4236816168e+00 1.4590624571e+00 9.5861583948e-02
1.4590331316e+00 1.4236522913e+00 9.5860481262e-02
1.5020703077e+00 1.4126172066e+00 9.6963025630e-02
1.2233564377e+01 1.1087831497e+01 7.7639883757e-01
1.2385449409e+01 1.1087851524e+01 7.8170520067e-01
1.2695634842e+01 1.1087909698e+01 7.9263383150e-01
1.3177636147e+01 1.1088007927e+01 8.0984568596e-01
1.3342997551e+01 1.1088007927e+01 8.1581360102e-01
2.0329785347e+00 1.5467773676e+00 1.2012418360e-01
2.0198924541e+00 1.5173437595e+00 1.1879812181e-01
2.0432422161e+00 1.4390038252e+00 1.1751855910e-01
2.0569822788e+00 1.4298827648e+00 1.1780294031e-01
2.0722754002e+00 1.4217382669e+00 1.1817750335e-01
2.0936913490e+00 1.4176172018e+00 1.1889972538e-01
2.1286034584e+00 1.4222850800e+00 1.2038516998e-01
7.1855173111e+00 4.7376952171e+00 4.0472853184e-01
7.1910347939e+00 4.6782813072e+00 4.0341490507e-01
7.2652635574e+00 4.5384569168e+00 4.0282303095e-01
1.8253477097e+01 4.3349218369e+00 8.8224571943e-01
1.8285272598e+01 -5.5467772484e+00 8.9854168892e-01
1.8160575867e+01 -5.8760933876e+00 8.9757871628e-01
2.1285839081e+00 -1.4222850800e+00 1.2038354576e-01
2.0722362995e+00 -1.4217187166e+00 1.1817435920e-01
2.0431933403e+00 -1.4389843941e+00 1.1751624942e-01
2.0337207317e+00 -1.4510742426e+00 1.1748138070e-01
2.0202734470e+00 -1.4792187214e+00 1.1774465442e-01
2.0197656155e+00 -1.5172655582e+00 1.1879090965e-01
6.9068942070e+00 -5.6683592796e+00 4.2016401887e-01
6.5849118233e+00 -5.4720506668e+00 4.0261161327e-01
6.5940723419e+00 -5.6178903580e+00 4.0735656023e-01
6.6034469604e+00 -5.7672066689e+00 4.1227713227e-01
6.4316210747e+00 -5.8292770386e+00 4.0818023682e-01
6.3330664635e+00 -5.8111329079e+00 4.0418159962e-01
1.5020214319e+00 -1.4125781059e+00 9.6959896386e-02
1.4709764719e+00 -1.4177929163e+00 9.6071183681e-02
1.4483495951e+00 -1.4306836128e+00 9.5733374357e-02
1.4377441406e+00 -1.4377539158e+00 9.5613859594e-02
1.4306836128e+00 -1.4483593702e+00 9.5733448863e-02
1.4236131907e+00 -1.4589843750e+00 9.5857024193e-02
1.4148925543e+00 -1.4861131907e+00 9.6490971744e-02
1.4175683260e+00 -1.5259960890e+00 9.7943134606e-02
1.1186171532e+01 -1.2808124542e+01 7.9965817928e-01
1.1198300362e+01 -1.3144160271e+01 8.1199753284e-01
1.1243818283e+01 -1.4407636642e+01 8.5940009356e-01
1.0980400085e+01 -1.4617070198e+01 8.5969024897e-01
9.8340816498e+00 -1.3431191444e+01 7.8278714418e-01
9.6446285248e+00 -1.3343456268e+01 7.7421057224e-01
9.4241504669e+00 -1.3208358765e+01 7.6300126314e-01
9.3626270294e+00 -1.3293925285e+01 7.6461708546e-01
9.2488965988e+00 -1.3305116653e+01 7.6197773218e-01
9.1314258575e+00 -1.3309609413e+01 7.5901180506e-01
9.0148534775e+00 -1.3314082146e+01 7.5609892607e-01
8.8991699219e+00 -1.3318534851e+01 7.5323623419e-01
8.7843456268e+00 -1.3322948456e+01 7.5042212009e-01
8.6124219894e+00 -1.3238242149e+01 7.4266266823e-01
8.5432224274e+00 -1.3309823990e+01 7.4372190237e-01
8.4583396912e+00 -1.3357167244e+01 7.4345374107e-01
8.3735055923e+00 -1.3404472351e+01 7.4321156740e-01
8.0972461700e+00 -1.3509433746e+01 7.4064362049e-01
8.0782814026e+00 -1.3667284966e+01 7.4656420946e-01
8.0173730850e+00 -1.3756249428e+01 7.4872106314e-01
7.8944921494e+00 -1.3935722351e+01 7.5316107273e-01
7.6074314117e+00 -1.4232539177e+01 7.5888150930e-01
7.5953612328e+00 -1.4422108650e+01 7.6651954651e-01
7.3707323074e+00 -1.4422108650e+01 7.6162445545e-01
7.0389938354e+00 -1.4422089577e+01 7.5465345383e-01
6.9297461510e+00 -1.4422089577e+01 7.5241303444e-01
6.8211326599e+00 -1.4422089577e+01 7.5021427870e-01
6.7131543159e+00 -1.4422089577e+01 7.4805867672e-01
6.4990429878e+00 -1.4422089577e+01 7.4386519194e-01
6.3928709030e+00 -1.4422089577e+01 7.4182724953e-01
6.2872653008e+00 -1.4422089577e+01 7.3983174562e-01
6.0777440071e+00 -1.4422069550e+01 7.3595291376e-01
5.9738082886e+00 -1.4422069550e+01 7.3406380415e-01
5.8933982849e+00 -1.4478573799e+01 7.3508304358e-01
5.8271384239e+00 -1.4834569931e+01 7.4947196245e-01
5.8271384239e+00 -1.5106288910e+01 7.6137763262e-01
5.5592575073e+00 -1.5241600990e+01 7.6291352510e-01
4.7373728752e+00 -1.4340233803e+01 7.1018248796e-01
4.6399803162e+00 -1.4340233803e+01 7.0875847340e-01
4.5429687500e+00 -1.4340233803e+01 7.0736813545e-01
4.4791793823e+00 -1.4446171761e+01 7.1122384071e-01
4.4791698456e+00 -1.4765858650e+01 7.2559517622e-01
4.4791698456e+00 -1.5098730087e+01 7.4058896303e-01
4.0468750000e+00 -1.5354082108e+01 7.4667143822e-01
3.7460350990e+00 -1.5354082108e+01 7.4319064617e-01
3.6463572979e+00 -1.5354082108e+01 7.4209439754e-01
3.5469822884e+00 -1.5354082108e+01 7.4102717638e-01
3.4478807449e+00 -1.5354082108e+01 7.3999297619e-01
1.0239551067e+00 -4.8367576599e+00 2.3248539865e-01
9.9298828840e-01 -4.8367381096e+00 2.3218713701e-01
9.3127930164e-01 -4.8367185593e+00 2.3162026703e-01
8.3923828602e-01 -4.8366794586e+00 2.3083935678e-01
7.7694332600e-01 -5.0250973701e+00 2.3910798132e-01
1.5011522770e+00 -1.5241522789e+01 7.2018676996e-01
1.4067772627e+00 -1.5241522789e+01 7.1976566315e-01
1.3125195503e+00 -1.5241503716e+01 7.1937352419e-01
1.2183593512e+00 -1.5241503716e+01 7.1900558472e-01
1.1242773533e+00 -1.5241483688e+01 7.1866613626e-01
9.3637692928e-01 -1.5241483688e+01 7.1807044744e-01
8.0256831646e-01 -1.4518378258e+01 6.8375247717e-01
6.1982423067e-01 -1.4421953201e+01 6.7880409956e-01
5.3120118380e-01 -1.4421953201e+01 6.7864024639e-01
3.5404294729e-01 -1.4421953201e+01 6.7838418484e-01
2.6550781727e-01 -1.4421953201e+01 6.7829596996e-01
8.8496088982e-02 -1.4421933174e+01 6.7819297314e-01
-3.5403320193e-01 -1.4421933174e+01 6.7838478088e-01
-4.4259765744e-01 -1.4421933174e+01 6.7849719524e-01
-5.3118163347e-01 -1.4421933174e+01 6.7863881588e-01
-6.1982423067e-01 -1.4421933174e+01 6.7880606651e-01
-7.0850586891e-01 -1.4421933174e+01 6.7899680138e-01
-7.9723632336e-01 -1.4421914101e+01 6.7921501398e-01
-8.8602536917e-01 -1.4421914101e+01 6.7946147919e-01
-2.3927733898e+00 -6.4371871948e+00 3.2293814421e-01
-2.3835058212e+00 -6.2937302589e+00 3.1646987796e-01
-2.4037499428e+00 -6.2315039635e+00 3.1407600641e-01
-2.4236912727e+00 -6.1701755524e+00 3.1172990799e-01
-2.4433300495e+00 -6.1097459793e+00 3.0942818522e-01
-2.4742772579e+00 -6.0786914825e+00 3.0861786008e-01
-2.5676171780e+00 -5.9898047447e+00 3.0645275116e-01
-2.6341795921e+00 -5.9426169395e+00 3.0567041039e-01
-2.6730468273e+00 -5.9317965508e+00 3.0595207214e-01
-2.7119822502e+00 -5.9209375381e+00 3.0624443293e-01
-2.7900586128e+00 -5.8991012573e+00 3.0686309934e-01
-2.8790917397e+00 -5.8989453316e+00 3.0866917968e-01
-2.9296386242e+00 -5.9102149010e+00 3.1019374728e-01
-2.9806737900e+00 -5.9216012955e+00 3.1174442172e-01
-3.1891698837e+00 -6.0556249619e+00 3.2183691859e-01
-1.7017382383e+00 1.1006992340e+01 3.2407516241e-01
-1.4949120283e+00 1.1007441521e+01 3.2322263718e-01
-1.4262011051e+00 1.1007596970e+01 3.2296371460e-01
-1.3293944597e+00 1.1351835251e+01 3.3255934715e-01
-1.3308203220e+00 1.2001015663e+01 3.5133314133e-01
-6.6067379713e-01 6.7079491615e+00 1.9612570107e-01
-6.1284178495e-01 6.6396288872e+00 1.9401402771e-01
-5.6601560116e-01 6.5727539062e+00 1.9195587933e-01
-4.4402343035e-01 6.5686326027e+00 1.9156448543e-01
1.3404296339e-01 7.2809176445e+00 2.1188908815e-01
2.1969726682e-01 7.1585936546e+00 2.0839166641e-01
2.6147460938e-01 7.0989255905e+00 2.0669873059e-01
3.0484375358e-01 7.0929684639e+00 2.0657438040e-01
7.4987304211e-01 1.1093105316e+01 3.2351362705e-01
1.2320410013e+00 1.1109628677e+01 3.2523781061e-01
1.7140624523e+00 1.1086054802e+01 3.2640203834e-01
2.7787694931e+00 1.1093437195e+01 3.3275839686e-01
3.2888574600e+00 1.1086327553e+01 3.3647239208e-01
5.3305664062e+00 1.1093886375e+01 3.5812667012e-01
3.9321191311e+00 6.7467379570e+00 2.2721832991e-01
3.9622948170e+00 6.7036328316e+00 2.2657911479e-01
4.0221581459e+00 6.6181445122e+00 2.2534245253e-01
4.0518455505e+00 6.5757226944e+00 2.2474026680e-01
4.0813865662e+00 6.5335350037e+00 2.2415055335e-01
4.1463575363e+00 6.5477929115e+00 2.2550576925e-01
4.7119626999e+00 7.3409566879e+00 2.5381577015e-01
4.7450680733e+00 7.2936716080e+00 2.5318276882e-01
4.7779979706e+00 7.2466406822e+00 2.5256347656e-01
4.8433980942e+00 7.1532421112e+00 2.5136041641e-01
4.8758687973e+00 7.1068749428e+00 2.5077846646e-01
4.9359569550e+00 7.1006641388e+00 2.5162211061e-01
7.8083982468e+00 1.1087070465e+01 3.9457800984e-01
8.4411420822e+00 1.1094394684e+01 4.0562400222e-01
1.4092577696e+00 1.4801757336e+00 5.9467446059e-02
1.4329687357e+00 1.4329491854e+00 5.8965794742e-02
1.4541015625e+00 1.4188281298e+00 5.9115141630e-02
1.4650976658e+00 1.4121093750e+00 5.9208564460e-02
1.4801172018e+00 1.4091796875e+00 5.9464968741e-02
1.4952733517e+00 1.4062108994e+00 5.9725891799e-02
1.5163183212e+00 1.4085742235e+00 6.0220394284e-02
1.3023095131e+01 1.1095136642e+01 4.9780791998e-01
1.3186181068e+01 1.1095175743e+01 5.0142979622e-01
8.5000095367e+00 6.7177734375e+00 3.1523972750e-01
8.5335054398e+00 6.6595897675e+00 3.1496247649e-01
2.0145115852e+00 1.5327343941e+00 7.3654077947e-02
2.0097265244e+00 1.4905077219e+00 7.2803914547e-02
2.0129883289e+00 1.4738671780e+00 7.2593480349e-02
2.0359959602e+00 1.4339061975e+00 7.2458878160e-02
2.0496776104e+00 1.4248046875e+00 7.2633206844e-02
2.0634276867e+00 1.4156640768e+00 7.2811312973e-02
2.0839452744e+00 1.4110156298e+00 7.3228970170e-02
2.1100780964e+00 1.4099023342e+00 7.3842160404e-02
1.9858123779e+01 1.1089081764e+01 6.6174978018e-01
1.4173690796e+01 7.4645309448e+00 4.6610900760e-01
1.3121181488e+01 6.7058591843e+00 4.2875647545e-01
1.3171581268e+01 6.6299996376e+00 4.2906728387e-01
2.4609745026e+01 1.1089901924e+01 7.8541618586e-01
2.5018592834e+01 1.1089941025e+01 7.9627889395e-01
1.8396171570e+01 4.2497262955e+00 5.4936629534e-01
1.8351299286e+01 -5.4440817833e+00 5.5696892738e-01
1.8359775543e+01 -5.5693750381e+00 5.5825239420e-01
1.8368270874e+01 -5.6952733994e+00 5.5956262350e-01
2.0633788109e+00 -1.4156445265e+00 7.2809562087e-02
2.0359570980e+00 -1.4338866472e+00 7.2457596660e-02
2.0270018578e+00 -1.4462695122e+00 7.2453133762e-02
2.0129003525e+00 -1.4738085270e+00 7.2590671480e-02
2.0097265244e+00 -1.5097069740e+00 7.3138028383e-02
2.0143749714e+00 -1.5326366425e+00 7.3648810387e-02
1.6927471161e+01 -1.3044003487e+01 6.2180602551e-01
1.6724130630e+01 -1.3051620483e+01 6.1726975441e-01
1.6390653610e+01 -1.2954003334e+01 6.0788077116e-01
1.6185937881e+01 -1.3118085861e+01 6.0621505976e-01
6.8873925209e+00 -5.6523241997e+00 2.5924891233e-01
6.8486132622e+00 -5.6911911964e+00 2.5909864902e-01
6.6291503906e+00 -5.6477732658e+00 2.5340017676e-01
6.6390037537e+00 -5.7982811928e+00 2.5647747517e-01
6.5806541443e+00 -5.8188867569e+00 2.5559705496e-01
1.5162987709e+00 -1.4085742235e+00 6.0218770057e-02
1.4952343702e+00 -1.4062108994e+00 5.9724044055e-02
1.4329100847e+00 -1.4329296350e+00 5.8963239193e-02
1.4258691072e+00 -1.4434765577e+00 5.9036903083e-02
1.4121093750e+00 -1.4650976658e+00 5.9207439423e-02
1.1168427467e+01 -1.2322461128e+01 4.8389959335e-01
1.1186063766e+01 -1.2808007240e+01 4.9479538202e-01
1.1192138672e+01 -1.2974803925e+01 4.9857786298e-01
1.1198261261e+01 -1.3144121170e+01 5.0243073702e-01
1.1217177391e+01 -1.3668183327e+01 5.1448470354e-01
1.1223681450e+01 -1.3848534584e+01 5.1867187023e-01
1.1250654221e+01 -1.4600234032e+01 5.3632009029e-01
1.1117665291e+01 -1.4612206459e+01 5.3424298763e-01
1.0980625153e+01 -1.4617362976e+01 5.3195786476e-01
9.9964942932e+00 -1.3478730202e+01 4.8828428984e-01
9.8341407776e+00 -1.3431269646e+01 4.8436498642e-01
9.6446971893e+00 -1.3343534470e+01 4.7906011343e-01
9.2671480179e+00 -1.3331347466e+01 4.7241422534e-01
9.1493549347e+00 -1.3335781097e+01 4.7057494521e-01
8.9165134430e+00 -1.3344491959e+01 4.6698805690e-01
8.8013963699e+00 -1.3348808289e+01 4.6523672342e-01
8.5432128906e+00 -1.3309803963e+01 4.6019124985e-01
8.2039842606e+00 -1.3498984337e+01 4.5963141322e-01
8.0998535156e+00 -1.3703769684e+01 4.6318098903e-01
8.0393552780e+00 -1.3793964386e+01 4.6455428004e-01
7.8954687119e+00 -1.3937440872e+01 4.6609008312e-01
7.8556833267e+00 -1.4067792892e+01 4.6882566810e-01
7.7937011719e+00 -1.4160214424e+01 4.7030264139e-01
7.7042770386e+00 -1.4203358650e+01 4.7015684843e-01
7.5953707695e+00 -1.4422128677e+01 4.7428259254e-01
7.0390038490e+00 -1.4422128677e+01 4.6695485711e-01
6.7131638527e+00 -1.4422108650e+01 4.6287375689e-01
6.6058006287e+00 -1.4422108650e+01 4.6156501770e-01
6.4990525246e+00 -1.4422108650e+01 4.6027931571e-01
6.3928709030e+00 -1.4422108650e+01 4.5901945233e-01
6.1822457314e+00 -1.4422108650e+01 4.5656859875e-01
5.9738278389e+00 -1.4422089577e+01 4.5421820879e-01
5.8933787346e+00 -1.4478534698e+01 4.5484465361e-01
5.7721581459e+00 -1.5241621017e+01 4.7422415018e-01
5.4535446167e+00 -1.5241621017e+01 4.7101888061e-01
4.7647948265e+00 -1.4131504059e+01 4.3392744660e-01
4.6681246758e+00 -1.4130604744e+01 4.3301290274e-01
4.5718650818e+00 -1.4129726410e+01 4.3211731315e-01
4.1535544395e+00 -1.4658514977e+01 4.4330984354e-01
4.0565624237e+00 -1.4658514977e+01 4.4254958630e-01
3.9598925114e+00 -1.4658495903e+01 4.4180670381e-01
3.8635449409e+00 -1.4658495903e+01 4.4108298421e-01
3.4811718464e+00 -1.4658495903e+01 4.3838065863e-01
3.3862888813e+00 -1.4658495903e+01 4.3775001168e-01
3.2916796207e+00 -1.4658495903e+01 4.3713942170e-01
1.0231542587e+00 -4.8330078125e+00 1.4374263585e-01
8.3859372139e-01 -4.8329491615e+00 1.4272505045e-01
8.0807614326e-01 -4.8329491615e+00 1.4257638156e-01
7.7761715651e-01 -4.8329296112e+00 1.4243271947e-01
2.0049607754e+00 -1.4112362862e+01 4.1474890709e-01
1.9166406393e+00 -1.4111972809e+01 4.1438674927e-01
1.7404687405e+00 -1.4111268997e+01 4.1370680928e-01
1.3125195503e+00 -1.5241542816e+01 4.4512283802e-01
1.2183593512e+00 -1.5241542816e+01 4.4489645958e-01
1.1242773533e+00 -1.5241542816e+01 4.4468650222e-01
8.0257809162e-01 -1.4518476486e+01 4.2308920622e-01
7.0863276720e-01 -1.4424530983e+01 4.2021459341e-01
5.3119140863e-01 -1.4421992302e+01 4.1991987824e-01
4.4260740280e-01 -1.4421972275e+01 4.1983443499e-01
2.6550781727e-01 -1.4421972275e+01 4.1970723867e-01
8.8496088982e-02 -1.4421972275e+01 4.1964316368e-01
-1.7699217796e-01 -1.4421953201e+01 4.1966536641e-01
-2.6549804211e-01 -1.4421953201e+01 4.1970595717e-01
-4.4259765744e-01 -1.4421953201e+01 4.1983267665e-01
-6.1982423067e-01 -1.4421953201e+01 4.2002248764e-01
-7.0849609375e-01 -1.4421953201e+01 4.2014211416e-01
-7.9722654819e-01 -1.4421953201e+01 4.2027404904e-01
-8.8602536917e-01 -1.4421953201e+01 4.2042708397e-01
-9.7488278151e-01 -1.4421933174e+01 4.2059242725e-01
-1.0704882145e+00 -1.4512324333e+01 4.2341077328e-01
-2.5199217796e+00 -6.0836520195e+00 1.9160005450e-01
-2.6676757336e+00 -6.1192770004e+00 1.9423602521e-01
-2.7403905392e+00 -6.0812497139e+00 1.9408082962e-01
-2.7803709507e+00 -6.0702538490e+00 1.9427162409e-01
-2.8204295635e+00 -6.0592379570e+00 1.9446976483e-01
-2.9753320217e+00 -6.0961132050e+00 1.9737751782e-01
-1.7017480135e+00 1.1006972313e+01 1.2461421639e-01
-1.6326757669e+00 1.1007108688e+01 1.2449847907e-01
-1.5637402534e+00 1.1007265091e+01 1.2439027429e-01
-1.4949120283e+00 1.1007421494e+01 1.2428700924e-01
-1.3294335604e+00 1.1352284431e+01 1.2788128853e-01
-7.0956051350e-01 6.7777342796e+00 7.6246410608e-02
-6.6066402197e-01 6.7079100609e+00 7.5414538383e-02
-5.6600582600e-01 6.5726952553e+00 7.3810137808e-02
-4.4402343035e-01 6.5686326027e+00 7.3662467301e-02
-1.3530175686e+00 2.2024139404e+01 2.4688123167e-01
-1.3586621284e+00 2.4579217911e+01 2.7542042732e-01
-1.3657909632e+00 2.7802537918e+01 3.1144326925e-01
-1.3750585318e+00 3.1995721817e+01 3.5830986500e-01
-1.4055663347e+00 4.5802341461e+01 5.1269447803e-01
1.7722655833e-01 7.2192187309e+00 8.0796033144e-02
3.0484375358e-01 7.0929880142e+00 7.9432927072e-02
3.2170605659e+00 1.1093515396e+01 1.2923248112e-01
3.2888476849e+00 1.1086308479e+01 1.2938126922e-01
4.6751270294e+00 1.1093729973e+01 1.3469220698e-01
4.7524118423e+00 1.1086523056e+01 1.3495950401e-01
4.8362989426e+00 1.1093769073e+01 1.3539914787e-01
2.4929394722e+00 4.4006247520e+00 5.6587293744e-02
2.5247654915e+00 4.3937301636e+00 5.6696604937e-02
3.9320995808e+00 6.7466988564e+00 8.7369538844e-02
3.9622850418e+00 6.7035937309e+00 8.7124653161e-02
3.9922947884e+00 6.6607227325e+00 8.6884498596e-02
4.1463670731e+00 6.5478320122e+00 8.6711935699e-02
4.7450485229e+00 7.2936325073e+00 9.7353607416e-02
4.7779784203e+00 7.2466015816e+00 9.7115859389e-02
4.8433790207e+00 7.1532030106e+00 9.6652925014e-02
4.8758397102e+00 7.1068358421e+00 9.6429653466e-02
7.8083887100e+00 1.1087050438e+01 1.5172563493e-01
9.4521188736e+00 1.1094531059e+01 1.6307519376e-01
1.4046875238e+00 1.5308398008e+00 2.3245820776e-02
1.3998827934e+00 1.5069335699e+00 2.3012552410e-02
1.4006054401e+00 1.4892773628e+00 2.2873857990e-02
1.4035840034e+00 1.4742187262e+00 2.2774467245e-02
1.4070409536e+00 1.4598046541e+00 2.2684859112e-02
1.4141014814e+00 1.4492187500e+00 2.2654952481e-02
1.4211425781e+00 1.4386718273e+00 2.2625798360e-02
1.4492187500e+00 1.4140625000e+00 2.2654304281e-02
1.4597948790e+00 1.4070116282e+00 2.2684488446e-02
1.4741698503e+00 1.4035155773e+00 2.2773455828e-02
1.4892284870e+00 1.4005273581e+00 2.2873019800e-02
1.5068066120e+00 1.3997265100e+00 2.3010645062e-02
1.5306932926e+00 1.4045312405e+00 2.3243274540e-02
2.0185937881e+00 1.5554882288e+00 2.8512392193e-02
2.0024023056e+00 1.4850780964e+00 2.7893237770e-02
2.0203905106e+00 1.4415429831e+00 2.7768630534e-02
2.0424315929e+00 1.4197655916e+00 2.7830341831e-02
2.0956542492e+00 1.4002734423e+00 2.8199700639e-02
7.3372168541e+00 4.5210742950e+00 9.6457898617e-02
2.0160701752e+01 1.1096327782e+01 2.5747141242e-01
1.4162070274e+01 7.3477730751e+00 1.7850783467e-01
1.4215048790e+01 7.2649021149e+00 1.7861168087e-01
1.3387568474e+01 6.7387304306e+00 1.6769286990e-01
1.3440927505e+01 6.6625390053e+00 1.6784389317e-01
1.3494374275e+01 6.5861911774e+00 1.6800324619e-01
2.5871150970e+01 1.1090039253e+01 3.1493386626e-01
4.0121318817e+01 1.1103046417e+01 4.6574637294e-01
1.8156093597e+01 4.4296483994e+00 2.0909985900e-01
1.8156084061e+01 4.3117966652e+00 2.0878991485e-01
1.8333730698e+01 4.2353124619e+00 2.1053147316e-01
6.7577242851e+00 1.5174999237e+00 7.7491030097e-02
6.7625389099e+00 1.4750390053e+00 7.7441535890e-02
3.2294441223e+01 6.8367967606e+00 3.6933410168e-01
3.7448036194e+01 7.2103123665e+00 4.2668327689e-01
3.6984951019e+01 6.8860545158e+00 4.2091390491e-01
3.6826179504e+01 6.6229686737e+00 4.1863799095e-01
1.1782538414e+01 1.5266796350e+00 1.3292904198e-01
4.6169353485e+01 -4.2614254951e+00 5.1876080036e-01
1.1781317711e+01 -1.5265429020e+00 1.3291607797e-01
3.3899852753e+01 -5.8822069168e+00 3.8495352864e-01
3.3893955231e+01 -6.0956444740e+00 3.8530173898e-01
1.8426113129e+01 -5.4662499428e+00 2.1504056454e-01
4.7263259888e+01 -1.4337167740e+01 5.5259174109e-01
3.9131347656e+01 -1.2927265167e+01 4.6110168099e-01
3.7579910278e+01 -1.2928339958e+01 4.4464561343e-01
3.7452098846e+01 -1.3660370827e+01 4.4603514671e-01
3.7451435089e+01 -1.4183241844e+01 4.4807019830e-01
3.5678760529e+01 -1.4014902115e+01 4.2887991667e-01
3.5270183563e+01 -1.4104824066e+01 4.2500403523e-01
3.4705986023e+01 -1.4126815796e+01 4.1923958063e-01
3.4292724609e+01 -1.4451640129e+01 4.1636398435e-01
3.4152969360e+01 -1.4640175819e+01 4.1574859619e-01
3.4013622284e+01 -1.4828164101e+01 4.1515097022e-01
3.3813083649e+01 -1.4988300323e+01 4.1380676627e-01
3.3535175323e+01 -1.5360214233e+01 4.1268676519e-01
3.3204559326e+01 -1.5954628944e+01 4.1216748953e-01
3.3458553314e+01 -1.6585077286e+01 4.1781684756e-01
3.3204528809e+01 -1.7227674484e+01 4.1853368282e-01
3.3204528809e+01 -1.7487089157e+01 4.1987562180e-01
3.3774452209e+01 -1.9132968903e+01 4.3430265784e-01
3.3774440765e+01 -1.9407695770e+01 4.3583190441e-01
3.3774421692e+01 -2.0243612289e+01 4.4055747986e-01
3.3879558563e+01 -2.0590253830e+01 4.4356933236e-01
3.3819412231e+01 -2.0838945389e+01 4.4445213675e-01
3.3879550934e+01 -2.1163887024e+01 4.4694045186e-01
3.3879539490e+01 -2.1746366501e+01 4.5042738318e-01
2.1322362423e+00 -1.4058593512e+00 2.8575142846e-02
2.0742774010e+00 -1.4044725895e+00 2.8027486056e-02
2.0287890434e+00 -1.4288281202e+00 2.7763804421e-02
2.0118651390e+00 -1.4541796446e+00 2.7773961425e-02
2.0055956841e+00 -1.4684569836e+00 2.7811488137e-02
2.0023143291e+00 -1.4850194454e+00 2.7891777456e-02
1.9997948408e+00 -1.5022460222e+00 2.7984274551e-02
2.0043554306e+00 -1.5249999762e+00 2.8178747743e-02
2.0182909966e+00 -1.5552538633e+00 2.8509005904e-02
1.6724159241e+01 -1.3051659584e+01 2.3735539615e-01
1.6306512833e+01 -1.3050820351e+01 2.3368181288e-01
1.6185926437e+01 -1.3118065834e+01 2.3310258985e-01
1.4549765587e+01 -1.1940683365e+01 2.1060624719e-01
1.4415644646e+01 -1.2435019493e+01 2.1300439537e-01
1.4421981812e+01 -1.2595643997e+01 2.1423684061e-01
6.5804882050e+00 -5.8187303543e+00 9.8279967904e-02
6.5779199600e+00 -5.9618945122e+00 9.9327310920e-02
1.5067772865e+00 -1.3997265100e+00 2.3010406643e-02
1.4386230707e+00 -1.4210741520e+00 2.2624654695e-02
1.4005175829e+00 -1.4892187119e+00 2.2872619331e-02
1.3997460604e+00 -1.5067968369e+00 2.3010721430e-02
1.1179755211e+01 -1.2643359184e+01 1.8883095682e-01
1.1185742378e+01 -1.2807636261e+01 1.9025535882e-01
1.1197968483e+01 -1.3143769264e+01 1.9319166243e-01
1.1204228401e+01 -1.3315780640e+01 1.9470524788e-01
1.1223612785e+01 -1.3848437309e+01 1.9944021106e-01
1.1230263710e+01 -1.4031777382e+01 2.0108655095e-01
1.1236982346e+01 -1.4218144417e+01 2.0276105404e-01
1.1243818283e+01 -1.4407636642e+01 2.0447546244e-01
1.1250761032e+01 -1.4600351334e+01 2.0622822642e-01
1.1117909431e+01 -1.4612538338e+01 2.0543146133e-01
1.0980869293e+01 -1.4617675781e+01 2.0455491543e-01
9.4241991043e+00 -1.3208417892e+01 1.8153962493e-01
9.3625288010e+00 -1.3293768883e+01 1.8193459511e-01
9.2671680450e+00 -1.3331366539e+01 1.8165628612e-01
9.1493844986e+00 -1.3335800171e+01 1.8094766140e-01
9.0150976181e+00 -1.3314453125e+01 1.7990386486e-01
8.9165334702e+00 -1.3344531059e+01 1.7956638336e-01
8.4583301544e+00 -1.3357128143e+01 1.7688943446e-01
8.3734865189e+00 -1.3404453278e+01 1.7683191597e-01
8.0998239517e+00 -1.3703730583e+01 1.7810399830e-01
7.8556542397e+00 -1.4067772865e+01 1.8027375638e-01
7.7043261528e+00 -1.4203436852e+01 1.8078330159e-01
7.4827146530e+00 -1.4422147751e+01 1.8178525567e-01
7.2594919205e+00 -1.4422147751e+01 1.8065042794e-01
7.1489157677e+00 -1.4422147751e+01 1.8009658158e-01
7.0390133858e+00 -1.4422147751e+01 1.7955477536e-01
6.6058101654e+00 -1.4422128677e+01 1.7748235166e-01
6.4990525246e+00 -1.4422128677e+01 1.7698733509e-01
6.3928809166e+00 -1.4422128677e+01 1.7650352418e-01
6.2872848511e+00 -1.4422128677e+01 1.7602723837e-01
6.1822557449e+00 -1.4422128677e+01 1.7556013167e-01
6.0777730942e+00 -1.4422128677e+01 1.7510564625e-01
5.9738278389e+00 -1.4422128677e+01 1.7465329170e-01
5.8933691978e+00 -1.4478515625e+01 1.7489728332e-01
5.8270115852e+00 -1.4570878983e+01 1.7557880282e-01
5.8270115852e+00 -1.4834238052e+01 1.7831714451e-01
4.9181346893e+00 -1.3231113434e+01 1.5793098509e-01
4.8256053925e+00 -1.3230195045e+01 1.5756426752e-01
4.7335057259e+00 -1.3229257584e+01 1.5720367432e-01
4.5505466461e+00 -1.3227460861e+01 1.5650723875e-01
4.4790720940e+00 -1.3284120560e+01 1.5685071051e-01
4.4790625572e+00 -1.3842890739e+01 1.6278518736e-01
4.2697558403e+00 -1.4075468063e+01 1.6456699371e-01
4.1756153107e+00 -1.4075468063e+01 1.6426698864e-01
3.9883592129e+00 -1.4075468063e+01 1.6368156672e-01
3.6176464558e+00 -1.4075448990e+01 1.6259965301e-01
3.5257225037e+00 -1.4075448990e+01 1.6234754026e-01
3.4340820312e+00 -1.4075448990e+01 1.6210228205e-01
9.2982417345e-01 -4.8292379379e+00 5.5023822933e-02
8.3794921637e-01 -4.8292188644e+00 5.4838541895e-02
7.7702146769e-01 -4.8292188644e+00 5.4726503789e-02
1.9593456984e+00 -1.3208827972e+01 1.4940303564e-01
1.7938768864e+00 -1.3208086014e+01 1.4913511276e-01
1.7113573551e+00 -1.3207714081e+01 1.4900849760e-01
1.6060351133e+00 -1.3713476181e+01 1.5448112786e-01
1.6060253382e+00 -1.4482011795e+01 1.6302329302e-01
1.3125195503e+00 -1.5241561890e+01 1.7115953565e-01
1.1242773533e+00 -1.5241542816e+01 1.7099182308e-01
1.0302929878e+00 -1.5241542816e+01 1.7091767490e-01
8.0258786678e-01 -1.4518554688e+01 1.6268752515e-01
4.4259765744e-01 -1.4421992302e+01 1.6143450141e-01
0.0000000000e+00 -1.4421992302e+01 1.6136011481e-01
-5.3119140863e-01 -1.4421972275e+01 1.6146934032e-01
-6.1982423067e-01 -1.4421972275e+01 1.6150803864e-01
-8.8602536917e-01 -1.4421972275e+01 1.6166226566e-01
-4.1743946075e+00 -3.5643905640e+01 4.0152448416e-01
-4.3506345749e+00 -3.5274002075e+01 3.9765119553e-01
-4.7907810211e+00 -3.5274002075e+01 3.9828017354e-01
-5.2682614326e+00 -3.4073982239e+01 3.8576406240e-01
-2.5414354801e+00 -6.0306248665e+00 7.3221109807e-02
-2.8454296589e+00 -6.5269918442e+00 7.9664498568e-02
-2.9039647579e+00 -6.5512499809e+00 8.0175854266e-02
-2.9929199219e+00 -6.1321678162e+00 7.6345235109e-02
-3.0141992569e+00 -6.0808200836e+00 7.5934335589e-02
-3.1920604706e+00 -6.0611133575e+00 7.6643370092e-02
-4.8559274673e+00 6.9855270386e+00 -5.7109531015e-02
-4.4590134621e+00 6.4992771149e+00 -5.2909757942e-02
-4.1155958176e+00 6.0783591270e+00 -4.9276649952e-02
-3.7164354324e+00 5.6365818977e+00 -4.5322638005e-02
-3.6309471130e+00 5.5811715126e+00 -4.4696383178e-02
-3.4668748379e+00 5.4747848511e+00 -4.3500736356e-02
-3.3113086224e+00 5.3739061356e+00 -4.2372863740e-02
-3.1638183594e+00 5.2784957886e+00 -4.1311118752e-02
-2.9558594227e+00 5.1439843178e+00 -3.9826449007e-02
-2.8898241520e+00 5.1012496948e+00 -3.9357203990e-02
-2.7622752190e+00 5.0187301636e+00 -3.8456678391e-02
-2.7006640434e+00 4.9788670540e+00 -3.8023155183e-02
-2.5815038681e+00 4.9017577171e+00 -3.7189502269e-02
-2.4674413204e+00 4.8279490471e+00 -3.6396387964e-02
-2.3581054211e+00 4.7572069168e+00 -3.5642784089e-02
-2.2117383480e+00 4.6763281822e+00 -3.4725531936e-02
-2.1708788872e+00 4.6637692451e+00 -3.4533061087e-02
-2.0509765148e+00 4.6269335747e+00 -3.3974654973e-02
-1.9348534346e+00 4.5912890434e+00 -3.3445995301e-02
-1.8594139814e+00 4.5681052208e+00 -3.3108003438e-02
-1.7490429878e+00 4.5341992378e+00 -3.2623793930e-02
-1.7129589319e+00 4.5231246948e+00 -3.2467566431e-02
-1.6772167683e+00 4.5121483803e+00 -3.2314024866e-02
-1.6418066025e+00 4.5012693405e+00 -3.2164257020e-02
-1.5375194550e+00 4.4692382812e+00 -3.1727448106e-02
-1.5033690929e+00 4.4587497711e+00 -3.1587198377e-02
-1.4359862804e+00 4.4380273819e+00 -3.1312771142e-02
-1.4027148485e+00 4.4278125763e+00 -3.1179608777e-02
-1.3370312452e+00 4.4076170921e+00 -3.0919054523e-02
-1.2405174971e+00 4.3779492378e+00 -3.0545758083e-02
-1.1774315834e+00 4.3585352898e+00 -3.0307292938e-02
-1.1153222322e+00 4.3394336700e+00 -3.0077008530e-02
-1.0846093893e+00 4.3299999237e+00 -2.9964569956e-02
-9.9382811785e-01 4.3020701408e+00 -2.9639843851e-02
-9.6400386095e-01 4.2928905487e+00 -2.9535531998e-02
-9.3438476324e-01 4.2837696075e+00 -2.9432496056e-02
-9.0497070551e-01 4.2747263908e+00 -2.9331292957e-02
-8.4672850370e-01 4.2567772865e+00 -2.9135197401e-02
-8.1790035963e-01 4.2479100227e+00 -2.9039744288e-02
-7.8926753998e-01 4.2391014099e+00 -2.8946017846e-02
-7.6080077887e-01 4.2303318977e+00 -2.8853416443e-02
-5.9688472748e-01 4.2013278008e+00 -2.8486661613e-02
-5.7022458315e-01 4.1984763145e+00 -2.8442649171e-02
-4.3805661798e-01 4.1842966080e+00 -2.8242178261e-02
-4.1184568405e-01 4.1814842224e+00 -2.8205661103e-02
-3.8569334149e-01 4.1786718369e+00 -2.8170289472e-02
-3.5959959030e-01 4.1758790016e+00 -2.8135556728e-02
-3.3358398080e-01 4.1730856895e+00 -2.8102930635e-02
-2.8170898557e-01 4.1675000191e+00 -2.8039531782e-02
-2.5586912036e-01 4.1647262573e+00 -2.8010243550e-02
-2.0432616770e-01 4.1591796875e+00 -2.7953948826e-02
-1.7863281071e-01 4.1564254761e+00 -2.7926949784e-02
-1.5298828483e-01 4.1536717415e+00 -2.7902517468e-02
-1.2739257514e-01 4.1509180069e+00 -2.7877692133e-02
-7.6318360865e-02 4.1454100609e+00 -2.7832221240e-02
-5.0839841366e-02 4.1426758766e+00 -2.7811573818e-02
-2.5400390849e-02 4.1399216652e+00 -2.7791490778e-02
0.0000000000e+00 4.1371874809e+00 -2.7772463858e-02
1.0128906369e-01 4.1262497902e+00 -2.7707824484e-02
1.2655273080e-01 4.1235351562e+00 -2.7694053948e-02
2.0217773318e-01 4.1153712273e+00 -2.7659339830e-02
2.2734373808e-01 4.1126561165e+00 -2.7650173753e-02
2.7775388956e-01 4.1088476181e+00 -2.7644928545e-02
3.2838866115e-01 4.1081247330e+00 -2.7665862814e-02
3.7911131978e-01 4.1073827744e+00 -2.7689952403e-02
4.2993164062e-01 4.1066403389e+00 -2.7718190104e-02
4.5538085699e-01 4.1062693596e+00 -2.7734126896e-02
4.8085936904e-01 4.1058983803e+00 -2.7750577778e-02
5.0637692213e-01 4.1055274010e+00 -2.7769107372e-02
5.5750000477e-01 4.1047849655e+00 -2.7808293700e-02
5.8311522007e-01 4.1044139862e+00 -2.7829464525e-02
6.3448238373e-01 4.1036524773e+00 -2.7875022963e-02
6.6022461653e-01 4.1032810211e+00 -2.7899397537e-02
6.8601560593e-01 4.1029100418e+00 -2.7924355119e-02
7.3774415255e-01 4.1021485329e+00 -2.7978992090e-02
7.6369136572e-01 4.1017575264e+00 -2.8008192778e-02
8.1574219465e-01 4.1009960175e+00 -2.8068885207e-02
8.4185546637e-01 4.1006250381e+00 -2.8100891039e-02
8.6802732944e-01 4.1002345085e+00 -2.8134498745e-02
8.9426755905e-01 4.0998435020e+00 -2.8168734163e-02
9.2056638002e-01 4.0994529724e+00 -2.8204582632e-02
1.0531347990e+00 4.0974802971e+00 -2.8400000185e-02
1.0798729658e+00 4.0970897675e+00 -2.8442762792e-02
1.1066992283e+00 4.0966796875e+00 -2.8486689553e-02
1.1336034536e+00 4.0962891579e+00 -2.8531322256e-02
1.1876757145e+00 4.0954880714e+00 -2.8625164181e-02
1.2421190739e+00 4.0946679115e+00 -2.8724364936e-02
1.2694725990e+00 4.0942773819e+00 -2.8775557876e-02
1.2969335318e+00 4.0938673019e+00 -2.8828000650e-02
1.3521581888e+00 4.0930466652e+00 -2.8936661780e-02
1.3799315691e+00 4.0926170349e+00 -2.8992900625e-02
1.4358105659e+00 4.0917968750e+00 -2.9109762982e-02
1.4639159441e+00 4.0913672447e+00 -2.9170416296e-02
1.4921483994e+00 4.0909571648e+00 -2.9231881723e-02
1.5489648581e+00 4.0900974274e+00 -2.9359359294e-02
1.5775682926e+00 4.0896677971e+00 -2.9425391927e-02
1.6062890291e+00 4.0892381668e+00 -2.9492301866e-02
1.6932811737e+00 4.0879297256e+00 -2.9702987522e-02
1.7519823313e+00 4.0870509148e+00 -2.9850624502e-02
1.7815526724e+00 4.0866012573e+00 -2.9926661402e-02
1.8112695217e+00 4.0861520767e+00 -3.0004691333e-02
1.8411425352e+00 4.0857028961e+00 -3.0083188787e-02
1.8711816072e+00 4.0852537155e+00 -3.0163716525e-02
1.9013866186e+00 4.0848045349e+00 -3.0245808885e-02
1.9929882288e+00 4.0833983421e+00 -3.0502060428e-02
2.3444042206e+00 4.0798630714e+00 -3.1587924808e-02
2.4114549160e+00 4.0798044205e+00 -3.1814116985e-02
2.4794726372e+00 4.0797653198e+00 -3.2048292458e-02
2.5138671398e+00 4.0797266960e+00 -3.2168425620e-02
2.5485155582e+00 4.0797071457e+00 -3.2291222364e-02
2.5834276676e+00 4.0796680450e+00 -3.2415598631e-02
2.6186230183e+00 4.0796484947e+00 -3.2542686909e-02
2.6540820599e+00 4.0796093941e+00 -3.2671391964e-02
2.8357908726e+00 4.0794529915e+00 -3.3351458609e-02
2.8730468750e+00 4.0794138908e+00 -3.3494699746e-02
2.9867968559e+00 4.0792770386e+00 -3.3939387649e-02
3.0253906250e+00 4.0792384148e+00 -3.4092750400e-02
3.1833691597e+00 4.0791015625e+00 -3.4734420478e-02
3.2237987518e+00 4.0790429115e+00 -3.4901522100e-02
3.3058593273e+00 4.0789647102e+00 -3.5245101899e-02
3.3474900723e+00 4.0789256096e+00 -3.5421725363e-02
3.3895604610e+00 4.0788865089e+00 -3.5601403564e-02
3.4320507050e+00 4.0788474083e+00 -3.5783603787e-02
3.4749705791e+00 4.0787887573e+00 -3.5969618708e-02
3.6065135002e+00 4.0786523819e+00 -3.6547582597e-02
1.3817968369e+00 1.4692772627e+00 -1.3539428823e-02
1.3911815882e+00 1.4433593750e+00 -1.3457049616e-02
1.4051367044e+00 1.4224804640e+00 -1.3422278687e-02
1.4224706888e+00 1.4050976038e+00 -1.3421688229e-02
1.4543846846e+00 1.3846874237e+00 -1.3480233960e-02
1.4842089415e+00 1.3787499666e+00 -1.3598918915e-02
1.5470117331e+00 1.3849217892e+00 -1.3938341290e-02
4.6112790108e+00 4.0774607658e+00 -4.1320789605e-02
4.6686129570e+00 4.0774021149e+00 -4.1609153152e-02
4.7267575264e+00 4.0773239136e+00 -4.1903857142e-02
5.0304002762e+00 4.0769333839e+00 -4.3466385454e-02
5.0938768387e+00 4.0768356323e+00 -4.3797854334e-02
5.1583299637e+00 4.0767579079e+00 -4.4135998935e-02
1.9874608517e+00 1.5510351658e+00 -1.6923464835e-02
1.9784276485e+00 1.4862109423e+00 -1.6610765830e-02
1.9816992283e+00 1.4697265625e+00 -1.6562080011e-02
1.9930468798e+00 1.4405664206e+00 -1.6508053988e-02
2.0014355183e+00 1.4280272722e+00 -1.6504392028e-02
2.0354199409e+00 1.3964648247e+00 -1.6569938511e-02
2.0682029724e+00 1.3819140196e+00 -1.6697416082e-02
2.1207518578e+00 1.3796874285e+00 -1.6983814538e-02
6.3488378525e+00 4.0751366615e+00 -5.0642967224e-02
6.4351558685e+00 4.0750193596e+00 -5.1131673157e-02
6.5231738091e+00 4.0749020576e+00 -5.1630873233e-02
6.6129293442e+00 4.0747852325e+00 -5.2142772824e-02
6.7979001999e+00 4.0744919777e+00 -5.3202528507e-02
6.8932418823e+00 4.0743556023e+00 -5.3752217442e-02
7.1915035248e+00 4.0739254951e+00 -5.5483799428e-02
7.2952632904e+00 4.0737891197e+00 -5.6090224534e-02
7.4013085365e+00 4.0736327171e+00 -5.6713122874e-02
7.5097360611e+00 4.0734763145e+00 -5.7351049036e-02
7.6206345558e+00 4.0733203888e+00 -5.8005623519e-02
7.7340917587e+00 4.0731248856e+00 -5.8678492904e-02
7.8502244949e+00 4.0729684830e+00 -5.9368327260e-02
7.9691209793e+00 4.0727930069e+00 -6.0077767819e-02
8.0908985138e+00 4.0725975037e+00 -6.0805551708e-02
8.2156639099e+00 4.0724215508e+00 -6.1554554850e-02
8.6091699600e+00 4.0718164444e+00 -6.3930705190e-02
8.7471971512e+00 4.0716013908e+00 -6.4768835902e-02
9.0344038010e+00 4.0711717606e+00 -6.6520124674e-02
9.1839351654e+00 4.0709567070e+00 -6.7436762154e-02
9.8257808685e+00 4.0699610710e+00 -7.1393467486e-02
9.9982128143e+00 4.0696873665e+00 -7.2463944554e-02
1.0548086166e+01 4.0688281059e+00 -7.5894199312e-02
1.0923232079e+01 4.0602731705e+00 -7.8228980303e-02
1.1346532822e+01 4.0598630905e+00 -8.0897130072e-02
1.1569852829e+01 4.0598435402e+00 -8.2309722900e-02
1.1801103592e+01 4.0598435402e+00 -8.3777062595e-02
1.2040751457e+01 4.0598435402e+00 -8.5299201310e-02
1.2547245979e+01 4.0598239899e+00 -8.8527522981e-02
1.2815165520e+01 4.0598239899e+00 -9.0240858495e-02
1.3093642235e+01 4.0598239899e+00 -9.2025183141e-02
