VERSION 0.7
FIELDS x y z
SIZE 4 4 4
TYPE F F F
COUNT 1 1 1
WIDTH 900
HEIGHT 1
VIEWPOINT 0.0 0.0 0.0 1.0 0.0 0.0 0.0
POINTS 900
DATA ascii
5.8612304926e-01 -3.7115234137e-01 -1.3034859300e-01
5.8383786678e-01 -3.7474608421e-01 -1.3034775853e-01
5.8152341843e-01 -3.7832030654e-01 -1.3034692407e-01
5.7682615519e-01 -3.8542968035e-01 -1.3034524024e-01
5.7204097509e-01 -3.9246094227e-01 -1.3034352660e-01
5.6961911917e-01 -3.9595702291e-01 -1.3034267724e-01
5.6717771292e-01 -3.9945310354e-01 -1.3034182787e-01
5.6471675634e-01 -4.0292966366e-01 -1.3034094870e-01
5.6222653389e-01 -4.0636718273e-01 -1.3034008443e-01
5.5207031965e-01 -4.2003905773e-01 -1.3033658266e-01
5.4423826933e-01 -4.3011718988e-01 -1.3033393025e-01
5.4158204794e-01 -4.3345701694e-01 -1.3033303618e-01
5.3350585699e-01 -4.4333982468e-01 -1.3033033907e-01
5.1962888241e-01 -4.5947265625e-01 -1.3032577932e-01
5.0527340174e-01 -4.7517576814e-01 -1.3032114506e-01
4.9940428138e-01 -4.8134765029e-01 -1.3031928241e-01
4.9643552303e-01 -4.8439452052e-01 -1.3031832874e-01
4.9043944478e-01 -4.9044921994e-01 -1.3031645119e-01
4.8438474536e-01 -4.9642577767e-01 -1.3031454384e-01
4.7514647245e-01 -5.0523436069e-01 -1.3031168282e-01
4.7204101086e-01 -5.0814449787e-01 -1.3031071424e-01
4.6890625358e-01 -5.1101559401e-01 -1.3030974567e-01
4.6576172113e-01 -5.1388669014e-01 -1.3030879200e-01
4.5941406488e-01 -5.1955074072e-01 -1.3030685484e-01
4.5621094108e-01 -5.2236324549e-01 -1.3030587137e-01
4.5299804211e-01 -5.2515625954e-01 -1.3030490279e-01
4.4976562262e-01 -5.2791017294e-01 -1.3030391932e-01
4.4324219227e-01 -5.3337889910e-01 -1.3030196726e-01
4.3996092677e-01 -5.3609371185e-01 -1.3030098379e-01
4.2329099774e-01 -5.4931640625e-01 -1.3029603660e-01
4.1651365161e-01 -5.5445313454e-01 -1.3029403985e-01
4.0623044968e-01 -5.6201171875e-01 -1.3029104471e-01
4.0276366472e-01 -5.6449216604e-01 -1.3029003143e-01
3.7456053495e-01 -5.8353513479e-01 -1.3028195500e-01
3.7096679211e-01 -5.8582031727e-01 -1.3028095663e-01
3.6736327410e-01 -5.8808594942e-01 -1.3027992845e-01
3.6374998093e-01 -5.9033203125e-01 -1.3027891517e-01
3.5647460818e-01 -5.9472656250e-01 -1.3027687371e-01
3.4175780416e-01 -6.0328125954e-01 -1.3027277589e-01
3.3804687858e-01 -6.0537105799e-01 -1.3027176261e-01
3.3058592677e-01 -6.0945308208e-01 -1.3026969135e-01
3.1930664182e-01 -6.1542969942e-01 -1.3026660681e-01
3.1551757455e-01 -6.1736327410e-01 -1.3026557863e-01
3.1172850728e-01 -6.1929684877e-01 -1.3026455045e-01
3.0791991949e-01 -6.2119138241e-01 -1.3026352227e-01
3.0409178138e-01 -6.2306636572e-01 -1.3026247919e-01
3.0026367307e-01 -6.2490230799e-01 -1.3026145101e-01
2.9642575979e-01 -6.2673825026e-01 -1.3026042283e-01
2.8870117664e-01 -6.3031250238e-01 -1.3025833666e-01
2.8483396769e-01 -6.3207030296e-01 -1.3025730848e-01
2.6922851801e-01 -6.3884764910e-01 -1.3025316596e-01
2.6529297233e-01 -6.4048826694e-01 -1.3025212288e-01
2.6135742664e-01 -6.4208984375e-01 -1.3025109470e-01
2.5741210580e-01 -6.4367187023e-01 -1.3025005162e-01
2.4949218333e-01 -6.4677733183e-01 -1.3024798036e-01
2.4551756680e-01 -6.4830076694e-01 -1.3024693727e-01
2.3353515565e-01 -6.5269529819e-01 -1.3024383783e-01
2.0934569836e-01 -6.6080075502e-01 -1.3023760915e-01
1.9713866711e-01 -6.6453123093e-01 -1.3023450971e-01
1.9305664301e-01 -6.6572266817e-01 -1.3023348153e-01
1.8896484375e-01 -6.6689449549e-01 -1.3023243845e-01
1.8077148497e-01 -6.6916012764e-01 -1.3023038208e-01
1.6428710520e-01 -6.7335933447e-01 -1.3022625446e-01
1.6014647484e-01 -6.7435544729e-01 -1.3022522628e-01
1.5600585938e-01 -6.7531245947e-01 -1.3022419810e-01
1.5186522901e-01 -6.7626953125e-01 -1.3022316992e-01
1.3521483541e-01 -6.7976558208e-01 -1.3021907210e-01
1.2267577648e-01 -6.8212890625e-01 -1.3021601737e-01
1.1848632246e-01 -6.8285155296e-01 -1.3021498919e-01
1.1009765416e-01 -6.8423825502e-01 -1.3021296263e-01
9.3271479011e-02 -6.8671876192e-01 -1.3020890951e-01
8.9052729309e-02 -6.8728512526e-01 -1.3020789623e-01
7.2158202529e-02 -6.8923825026e-01 -1.3020388782e-01
6.3691407442e-02 -6.9005858898e-01 -1.3020187616e-01
5.5224608630e-02 -6.9078123569e-01 -1.3019989431e-01
5.0986327231e-02 -6.9109374285e-01 -1.3019889593e-01
4.2500000447e-02 -6.9166016579e-01 -1.3019691408e-01
3.8251951337e-02 -6.9189453125e-01 -1.3019591570e-01
2.9755858704e-02 -6.9230467081e-01 -1.3019394875e-01
2.1259766072e-02 -6.9261717796e-01 -1.3019199669e-01
1.2763671577e-02 -6.9281250238e-01 -1.3019002974e-01
8.5058594123e-03 -6.9287109375e-01 -1.3018904626e-01
4.2578126304e-03 -6.9291013479e-01 -1.3018807769e-01
-1.2753905728e-02 -6.9277340174e-01 -1.3018421829e-01
-2.1250000224e-02 -6.9255858660e-01 -1.3018229604e-01
-3.3994138241e-02 -6.9203126431e-01 -1.3017943501e-01
-4.6728514135e-02 -6.9128906727e-01 -1.3017660379e-01
-5.0966795534e-02 -6.9097656012e-01 -1.3017566502e-01
-5.5205076933e-02 -6.9064450264e-01 -1.3017472625e-01
-5.9443358332e-02 -6.9029295444e-01 -1.3017378747e-01
-6.7900389433e-02 -6.8949216604e-01 -1.3017193973e-01
-7.2138667107e-02 -6.8906247616e-01 -1.3017101586e-01
-8.0585934222e-02 -6.8812501431e-01 -1.3016915321e-01
-9.7441405058e-02 -6.8591797352e-01 -1.3016550243e-01
-1.0165038705e-01 -6.8529295921e-01 -1.3016460836e-01
-1.0584960878e-01 -6.8464839458e-01 -1.3016369939e-01
-1.1843749881e-01 -6.8257808685e-01 -1.3016101718e-01
-1.2261718512e-01 -6.8183594942e-01 -1.3016012311e-01
-1.2679687142e-01 -6.8105465174e-01 -1.3015924394e-01
-1.3097655773e-01 -6.8027341366e-01 -1.3015834987e-01
-1.3930663466e-01 -6.7859375477e-01 -1.3015660644e-01
-1.5591797233e-01 -6.7496091127e-01 -1.3015313447e-01
-1.6418944299e-01 -6.7298829556e-01 -1.3015142083e-01
-1.6831053793e-01 -6.7195308208e-01 -1.3015057147e-01
-1.8064452708e-01 -6.6873043776e-01 -1.3014803827e-01
-1.8474608660e-01 -6.6761720181e-01 -1.3014720380e-01
-1.8883788586e-01 -6.6646480560e-01 -1.3014636934e-01
-1.9700194895e-01 -6.6408199072e-01 -1.3014470041e-01
-2.0918944478e-01 -6.6033202410e-01 -1.3014225662e-01
-2.3333983123e-01 -6.5216797590e-01 -1.3013745844e-01
-2.3733398318e-01 -6.5072262287e-01 -1.3013668358e-01
-2.4131835997e-01 -6.4923828840e-01 -1.3013589382e-01
-2.5323241949e-01 -6.4468747377e-01 -1.3013358414e-01
-2.5717774034e-01 -6.4310544729e-01 -1.3013280928e-01
-2.6504883170e-01 -6.3990235329e-01 -1.3013130426e-01
-2.6896482706e-01 -6.3826167583e-01 -1.3013054430e-01
-2.7288085222e-01 -6.3660156727e-01 -1.3012979925e-01
-2.8454101086e-01 -6.3144528866e-01 -1.3012759387e-01
-2.8840819001e-01 -6.2968748808e-01 -1.3012684882e-01
-2.9226562381e-01 -6.2791013718e-01 -1.3012613356e-01
-2.9611328244e-01 -6.2609374523e-01 -1.3012541831e-01
-3.0376952887e-01 -6.2240231037e-01 -1.3012398779e-01
-3.0757811666e-01 -6.2052732706e-01 -1.3012327254e-01
-3.1894531846e-01 -6.1474609375e-01 -1.3012118638e-01
-3.2270506024e-01 -6.1277341843e-01 -1.3012050092e-01
-3.3020508289e-01 -6.0876953602e-01 -1.3011914492e-01
-3.3392578363e-01 -6.0671871901e-01 -1.3011847436e-01
-3.3764648438e-01 -6.0466796160e-01 -1.3011780381e-01
-3.4503906965e-01 -6.0046875477e-01 -1.3011647761e-01
-3.5602536798e-01 -5.9400391579e-01 -1.3011454046e-01
-3.6689451337e-01 -5.8734375238e-01 -1.3011263311e-01
-3.7048828602e-01 -5.8507812023e-01 -1.3011202216e-01
-3.7407225370e-01 -5.8277344704e-01 -1.3011139631e-01
-3.8472655416e-01 -5.7578122616e-01 -1.3010957837e-01
-3.8825193048e-01 -5.7341796160e-01 -1.3010896742e-01
-3.9175781608e-01 -5.7101559639e-01 -1.3010838628e-01
-3.9525389671e-01 -5.6859374046e-01 -1.3010780513e-01
-3.9873045683e-01 -5.6615233421e-01 -1.3010722399e-01
-4.1590818763e-01 -5.5365234613e-01 -1.3010439277e-01
-4.2266601324e-01 -5.4849606752e-01 -1.3010329008e-01
-4.2601561546e-01 -5.4589843750e-01 -1.3010273874e-01
-4.3598631024e-01 -5.3794920444e-01 -1.3010115921e-01
-4.3927732110e-01 -5.3527343273e-01 -1.3010065258e-01
-4.5867186785e-01 -5.1873046160e-01 -1.3009765744e-01
-4.6500000358e-01 -5.1304686069e-01 -1.3009671867e-01
-4.6814450622e-01 -5.1017576456e-01 -1.3009624183e-01
-4.7125974298e-01 -5.0730466843e-01 -1.3009577990e-01
-4.7436523438e-01 -5.0439453125e-01 -1.3009533286e-01
-4.7745117545e-01 -5.0148433447e-01 -1.3009487092e-01
-4.8051756620e-01 -4.9853515625e-01 -1.3009442389e-01
-4.8356443644e-01 -4.9558591843e-01 -1.3009399176e-01
-4.8659178615e-01 -4.9259763956e-01 -1.3009355962e-01
-4.8959958553e-01 -4.8960936069e-01 -1.3009312749e-01
-4.9852538109e-01 -4.8050779104e-01 -1.3009189069e-01
-5.0146484375e-01 -4.7744140029e-01 -1.3009148836e-01
-5.0728511810e-01 -4.7124999762e-01 -1.3009069860e-01
-5.1302731037e-01 -4.6498045325e-01 -1.3008992374e-01
-5.1586914062e-01 -4.6181640029e-01 -1.3008955121e-01
-5.1869142056e-01 -4.5865234733e-01 -1.3008917868e-01
-5.2427732944e-01 -4.5224606991e-01 -1.3008846343e-01
-5.2704101801e-01 -4.4902342558e-01 -1.3008812070e-01
-5.3250974417e-01 -4.4251951575e-01 -1.3008743525e-01
-5.3521484137e-01 -4.3923828006e-01 -1.3008710742e-01
-5.3790038824e-01 -4.3593749404e-01 -1.3008677959e-01
-5.4583007097e-01 -4.2595702410e-01 -1.3008584082e-01
-5.4842770100e-01 -4.2259764671e-01 -1.3008552790e-01
-5.5357420444e-01 -4.1583982110e-01 -1.3008494675e-01
-5.5611324310e-01 -4.1244140267e-01 -1.3008466363e-01
-5.6112301350e-01 -4.0558591485e-01 -1.3008411229e-01
-5.6360352039e-01 -4.0212890506e-01 -1.3008385897e-01
-5.6849610806e-01 -3.9517578483e-01 -1.3008333743e-01
-5.7090818882e-01 -3.9167967439e-01 -1.3008308411e-01
-5.7330077887e-01 -3.8818359375e-01 -1.3008284569e-01
-5.7567381859e-01 -3.8464844227e-01 -1.3008260727e-01
-5.7801759243e-01 -3.8111326098e-01 -1.3008238375e-01
-5.8034175634e-01 -3.7755858898e-01 -1.3008216023e-01
-5.8264648914e-01 -3.7398436666e-01 -1.3008195162e-01
-5.8719724417e-01 -3.6679688096e-01 -1.3008153439e-01
-5.8943355083e-01 -3.6320310831e-01 -1.3008134067e-01
-5.9165036678e-01 -3.5957029462e-01 -1.3008114696e-01
-5.9383785725e-01 -3.5593748093e-01 -1.3008096814e-01
-6.0029298067e-01 -3.4494140744e-01 -1.3008044660e-01
-6.0239255428e-01 -3.4125000238e-01 -1.3008028269e-01
-6.0653316975e-01 -3.3382812142e-01 -1.3007998466e-01
-6.1058592796e-01 -3.2636716962e-01 -1.3007970154e-01
-6.1257809401e-01 -3.2261717319e-01 -1.3007958233e-01
-6.1649411917e-01 -3.1507810950e-01 -1.3007934391e-01
-6.2766599655e-01 -2.9216796160e-01 -1.3007877767e-01
-6.3120114803e-01 -2.8443357348e-01 -1.3007864356e-01
-6.3798826933e-01 -2.6886719465e-01 -1.3007843494e-01
-6.3961911201e-01 -2.6494139433e-01 -1.3007840514e-01
-6.4123046398e-01 -2.6101562381e-01 -1.3007837534e-01
-6.4282226562e-01 -2.5707030296e-01 -1.3007836044e-01
-6.4439451694e-01 -2.5312498212e-01 -1.3007834554e-01
-6.4592772722e-01 -2.4916015565e-01 -1.3007834554e-01
-6.4745116234e-01 -2.4519531429e-01 -1.3007833064e-01
-6.5327149630e-01 -2.2923827171e-01 -1.3007839024e-01
-6.5466797352e-01 -2.2521483898e-01 -1.3007842004e-01
-6.5870118141e-01 -2.1312499046e-01 -1.3007855415e-01
-6.5999996662e-01 -2.0908202231e-01 -1.3007861376e-01
-6.6126954556e-01 -2.0503905416e-01 -1.3007865846e-01
-6.6250973940e-01 -2.0097655058e-01 -1.3007873297e-01
-6.6373044252e-01 -1.9691406190e-01 -1.3007880747e-01
-6.6493165493e-01 -1.9283202291e-01 -1.3007888198e-01
-6.6724610329e-01 -1.8464843929e-01 -1.3007906079e-01
-6.7259764671e-01 -1.6410155594e-01 -1.3007962704e-01
-6.7359375954e-01 -1.5998046100e-01 -1.3007976115e-01
-6.7457032204e-01 -1.5583984554e-01 -1.3007989526e-01
-6.7819333076e-01 -1.3923828304e-01 -1.3008050621e-01
-6.7903316021e-01 -1.3507811725e-01 -1.3008068502e-01
-6.8140625954e-01 -1.2255859375e-01 -1.3008122146e-01
-6.8286132812e-01 -1.1417968571e-01 -1.3008160889e-01
-6.8485349417e-01 -1.0158202797e-01 -1.3008226454e-01
-6.8661129475e-01 -8.8964842260e-02 -1.3008295000e-01
-6.8813472986e-01 -7.6308593154e-02 -1.3008369505e-01
-6.8942379951e-01 -6.3632808626e-02 -1.3008449972e-01
-6.8980467319e-01 -5.9414062649e-02 -1.3008478284e-01
-6.9015622139e-01 -5.5175781250e-02 -1.3008506596e-01
-6.9048827887e-01 -5.0937499851e-02 -1.3008536398e-01
-6.9106441736e-01 -4.2460937053e-02 -1.3008596003e-01
-6.9130855799e-01 -3.8222655654e-02 -1.3008627295e-01
-6.9190430641e-01 -2.5488279760e-02 -1.3008724153e-01
-6.9205075502e-01 -2.1250000224e-02 -1.3008756936e-01
-6.9226562977e-01 -1.2753905728e-02 -1.3008825481e-01
-6.9232422113e-01 -8.4960935637e-03 -1.3008862734e-01
-6.3009762764e-01 -0.0000000000e+00 -1.3010354340e-01
-6.3008785248e-01 3.8671873044e-03 -1.3010387123e-01
-6.2999022007e-01 1.1601562612e-02 -1.3010457158e-01
-6.2991207838e-01 1.5468749218e-02 -1.3010491431e-01
-6.2980467081e-01 1.9335936755e-02 -1.3010528684e-01
-6.2967771292e-01 2.3183593526e-02 -1.3010564446e-01
-6.2868160009e-01 4.2500000447e-02 -1.3010753691e-01
-6.2840819359e-01 4.6347655356e-02 -1.3010793924e-01
-6.2708985806e-01 6.1757810414e-02 -1.3010957837e-01
-6.2628906965e-01 6.9453120232e-02 -1.3011042774e-01
-6.2491208315e-01 8.0976560712e-02 -1.3011173904e-01
-6.2332028151e-01 9.2460937798e-02 -1.3011309505e-01
-6.2274414301e-01 9.6289061010e-02 -1.3011355698e-01
-6.2213867903e-01 1.0009765625e-01 -1.3011403382e-01
-6.2152343988e-01 1.0392577946e-01 -1.3011449575e-01
-6.2086910009e-01 1.0773437470e-01 -1.3011497259e-01
-6.2020504475e-01 1.1154296994e-01 -1.3011546433e-01
-6.1878907681e-01 1.1914062500e-01 -1.3011644781e-01
-6.1804687977e-01 1.2292968482e-01 -1.3011693954e-01
-6.1728513241e-01 1.2671874464e-01 -1.3011743128e-01
-6.1650389433e-01 1.3050781190e-01 -1.3011795282e-01
-6.1486327648e-01 1.3806639612e-01 -1.3011898100e-01
-6.1400389671e-01 1.4183592796e-01 -1.3011948764e-01
-6.1312496662e-01 1.4560545981e-01 -1.3012002409e-01
-6.1129879951e-01 1.5312500298e-01 -1.3012109697e-01
-6.1034178734e-01 1.5687499940e-01 -1.3012163341e-01
-6.0837888718e-01 1.6435547173e-01 -1.3012273610e-01
-6.0417968035e-01 1.7923827469e-01 -1.3012497127e-01
-6.0193359852e-01 1.8664062023e-01 -1.3012613356e-01
-5.9840816259e-01 1.9767577946e-01 -1.3012789190e-01
-5.9592771530e-01 2.0501953363e-01 -1.3012908399e-01
-5.9337890148e-01 2.1232421696e-01 -1.3013030589e-01
-5.9073239565e-01 2.1958984435e-01 -1.3013154268e-01
-5.8226561546e-01 2.4119140208e-01 -1.3013532758e-01
-5.8078122139e-01 2.4474608898e-01 -1.3013598323e-01
-5.7926756144e-01 2.4832031131e-01 -1.3013663888e-01
-5.7773435116e-01 2.5185546279e-01 -1.3013729453e-01
-5.7460933924e-01 2.5894531608e-01 -1.3013862073e-01
-5.7301753759e-01 2.6246091723e-01 -1.3013929129e-01
-5.7139647007e-01 2.6597654819e-01 -1.3013996184e-01
-5.6975585222e-01 2.6947265863e-01 -1.3014063239e-01
-5.6809568405e-01 2.7296873927e-01 -1.3014131784e-01
-5.6470704079e-01 2.7992185950e-01 -1.3014268875e-01
-5.6297850609e-01 2.8337889910e-01 -1.3014338911e-01
-5.6124019623e-01 2.8683593869e-01 -1.3014408946e-01
-5.5947262049e-01 2.9027342796e-01 -1.3014478981e-01
-5.5404293537e-01 3.0052733421e-01 -1.3014690578e-01
-5.5218750238e-01 3.0392578244e-01 -1.3014762104e-01
-5.5031245947e-01 3.0730468035e-01 -1.3014835119e-01
-5.4842770100e-01 3.1068357825e-01 -1.3014908135e-01
-5.3663086891e-01 3.3066406846e-01 -1.3015349209e-01
-5.3459960222e-01 3.3396482468e-01 -1.3015423715e-01
-5.3253906965e-01 3.3722656965e-01 -1.3015499711e-01
-5.2836912870e-01 3.4375000000e-01 -1.3015651703e-01
-5.2196288109e-01 3.5341796279e-01 -1.3015879691e-01
-5.1538085938e-01 3.6296874285e-01 -1.3016113639e-01
-5.1314449310e-01 3.6613279581e-01 -1.3016192615e-01
-5.1088863611e-01 3.6927732825e-01 -1.3016270101e-01
-5.0862306356e-01 3.7240234017e-01 -1.3016349077e-01
-5.0168943405e-01 3.8171875477e-01 -1.3016587496e-01
-4.9934569001e-01 3.8478514552e-01 -1.3016667962e-01
-4.9697265029e-01 3.8785156608e-01 -1.3016748428e-01
-4.9458983541e-01 3.9089843631e-01 -1.3016828895e-01
-4.8975583911e-01 3.9693358541e-01 -1.3016992807e-01
-4.8731443286e-01 3.9994138479e-01 -1.3017073274e-01
-4.8485350609e-01 4.0291014314e-01 -1.3017155230e-01
-4.8238280416e-01 4.0589842200e-01 -1.3017237186e-01
-4.7988280654e-01 4.0884765983e-01 -1.3017320633e-01
-4.7737303376e-01 4.1177734733e-01 -1.3017402589e-01
-4.7483396530e-01 4.1470703483e-01 -1.3017486036e-01
-4.6712890267e-01 4.2337888479e-01 -1.3017736375e-01
-4.6453124285e-01 4.2624998093e-01 -1.3017821312e-01
-4.5124998689e-01 4.4031250477e-01 -1.3018245995e-01
-4.4582030177e-01 4.4582030177e-01 -1.3018417358e-01
-4.2912107706e-01 4.6195310354e-01 -1.3018937409e-01
-4.2628905177e-01 4.6457031369e-01 -1.3019023836e-01
-4.1476562619e-01 4.7490233183e-01 -1.3019376993e-01
-4.1184568405e-01 4.7744140029e-01 -1.3019464910e-01
-4.0891599655e-01 4.7996091843e-01 -1.3019554317e-01
-4.0596678853e-01 4.8248046637e-01 -1.3019642234e-01
-4.0001952648e-01 4.8742187023e-01 -1.3019821048e-01
-3.9702147245e-01 4.8988279700e-01 -1.3019910455e-01
-3.8794919848e-01 4.9710935354e-01 -1.3020180166e-01
-3.8489258289e-01 4.9949216843e-01 -1.3020271063e-01
-3.7252929807e-01 5.0876951218e-01 -1.3020633161e-01
-3.6940428615e-01 5.1105469465e-01 -1.3020724058e-01
-3.6625975370e-01 5.1332032681e-01 -1.3020814955e-01
-3.6310544610e-01 5.1554685831e-01 -1.3020905852e-01
-3.4065428376e-01 5.3070312738e-01 -1.3021549582e-01
-3.2753905654e-01 5.3890621662e-01 -1.3021920621e-01
-3.2422849536e-01 5.4091793299e-01 -1.3022013009e-01
-3.1085938215e-01 5.4873043299e-01 -1.3022385538e-01
-3.0749022961e-01 5.5062496662e-01 -1.3022477925e-01
-3.0411133170e-01 5.5250000954e-01 -1.3022571802e-01
-2.9046875238e-01 5.5982422829e-01 -1.3022945821e-01
-2.8702148795e-01 5.6160157919e-01 -1.3023039699e-01
-2.8357422352e-01 5.6335937977e-01 -1.3023133576e-01
-2.7665039897e-01 5.6679683924e-01 -1.3023321331e-01
-2.7316406369e-01 5.6849610806e-01 -1.3023415208e-01
-2.5914061069e-01 5.7503902912e-01 -1.3023792207e-01
-2.5206053257e-01 5.7818359137e-01 -1.3023981452e-01
-2.4851562083e-01 5.7972657681e-01 -1.3024073839e-01
-2.3421874642e-01 5.8566403389e-01 -1.3024452329e-01
-2.2340819240e-01 5.8988279104e-01 -1.3024735451e-01
-2.1978515387e-01 5.9125000238e-01 -1.3024829328e-01
-2.0521484315e-01 5.9648436308e-01 -1.3025206327e-01
-1.9788084924e-01 5.9896481037e-01 -1.3025395572e-01
-1.8682616949e-01 6.0251951218e-01 -1.3025678694e-01
-1.7198242247e-01 6.0695308447e-01 -1.3026055694e-01
-1.4954100549e-01 6.1289060116e-01 -1.3026617467e-01
-1.4200195670e-01 6.1468750238e-01 -1.3026805222e-01
-1.3445311785e-01 6.1638671160e-01 -1.3026992977e-01
-1.3067382574e-01 6.1720699072e-01 -1.3027085364e-01
-1.2308593839e-01 6.1876952648e-01 -1.3027271628e-01
-1.1928710341e-01 6.1953121424e-01 -1.3027364016e-01
-1.1548827589e-01 6.2025392056e-01 -1.3027457893e-01
-1.1167968810e-01 6.2095701694e-01 -1.3027550280e-01
-1.0787109286e-01 6.2162107229e-01 -1.3027642667e-01
-1.0405272990e-01 6.2228512764e-01 -1.3027736545e-01
-1.0023437440e-01 6.2291014194e-01 -1.3027827442e-01
-8.8749997318e-02 6.2466794252e-01 -1.3028106093e-01
-8.1083983183e-02 6.2572264671e-01 -1.3028289378e-01
-7.7236324549e-02 6.2621092796e-01 -1.3028381765e-01
-7.3398433626e-02 6.2667965889e-01 -1.3028472662e-01
-6.9550782442e-02 6.2712889910e-01 -1.3028563559e-01
-6.5703123808e-02 6.2753903866e-01 -1.3028655946e-01
-6.1855468899e-02 6.2792968750e-01 -1.3028746843e-01
-5.4140623659e-02 6.2865233421e-01 -1.3028928638e-01
-4.2558591813e-02 6.2955075502e-01 -1.3029199839e-01
-3.8701169193e-02 6.2980467081e-01 -1.3029290736e-01
-3.4833982587e-02 6.3003903627e-01 -1.3029380143e-01
-2.7099609375e-02 6.3042968512e-01 -1.3029560447e-01
-2.3232420906e-02 6.3058590889e-01 -1.3029649854e-01
-1.5488280915e-02 6.3083982468e-01 -1.3029828668e-01
-1.1621093377e-02 6.3091796637e-01 -1.3029918075e-01
-7.7441404574e-03 6.3099610806e-01 -1.3030005991e-01
-3.8769531529e-03 6.3103514910e-01 -1.3030095398e-01
0.0000000000e+00 6.3103514910e-01 -1.3030183315e-01
7.7441404574e-03 6.3099610806e-01 -1.3030360639e-01
1.5488280915e-02 6.3087886572e-01 -1.3030534983e-01
2.7099609375e-02 6.3048827648e-01 -1.3030797243e-01
3.0966795981e-02 6.3031250238e-01 -1.3030882180e-01
3.8691405207e-02 6.2990230322e-01 -1.3031055033e-01
4.2558591813e-02 6.2964844704e-01 -1.3031141460e-01
4.6425778419e-02 6.2939453125e-01 -1.3031227887e-01
5.4140623659e-02 6.2876951694e-01 -1.3031397760e-01
6.9560542703e-02 6.2726563215e-01 -1.3031736016e-01
7.7255859971e-02 6.2638670206e-01 -1.3031904399e-01
8.1093750894e-02 6.2589842081e-01 -1.3031986356e-01
8.8769532740e-02 6.2486326694e-01 -1.3032153249e-01
9.6435546875e-02 6.2373048067e-01 -1.3032317162e-01
1.0026367009e-01 6.2314450741e-01 -1.3032400608e-01
1.0790038854e-01 6.2187498808e-01 -1.3032564521e-01
1.1171874404e-01 6.2119138241e-01 -1.3032644987e-01
1.1933593452e-01 6.1978513002e-01 -1.3032805920e-01
1.2313476205e-01 6.1904293299e-01 -1.3032886386e-01
1.2693358958e-01 6.1828124523e-01 -1.3032966852e-01
1.3072265685e-01 6.1750000715e-01 -1.3033045828e-01
1.3451170921e-01 6.1669921875e-01 -1.3033124804e-01
1.3829101622e-01 6.1585938931e-01 -1.3033203781e-01
1.4583984017e-01 6.1412107944e-01 -1.3033361733e-01
1.6461913288e-01 6.0937500000e-01 -1.3033747673e-01
1.7208984494e-01 6.0732418299e-01 -1.3033899665e-01
1.7581054568e-01 6.0624998808e-01 -1.3033975661e-01
1.7953124642e-01 6.0517579317e-01 -1.3034051657e-01
1.8324218690e-01 6.0406249762e-01 -1.3034126163e-01
1.9063475728e-01 6.0177731514e-01 -1.3034275174e-01
1.9432616234e-01 6.0058593750e-01 -1.3034349680e-01
2.1266600490e-01 5.9437501431e-01 -1.3034711778e-01
2.1630859375e-01 5.9304684401e-01 -1.3034784794e-01
2.2357422113e-01 5.9035152197e-01 -1.3034926355e-01
2.3799803853e-01 5.8470702171e-01 -1.3035206497e-01
2.4158202112e-01 5.8324217796e-01 -1.3035275042e-01
2.4516600370e-01 5.8175778389e-01 -1.3035345078e-01
2.5583007932e-01 5.7714843750e-01 -1.3035547733e-01
2.6290038228e-01 5.7396483421e-01 -1.3035681844e-01
2.6992186904e-01 5.7070308924e-01 -1.3035812974e-01
2.7341794968e-01 5.6904298067e-01 -1.3035878539e-01
2.7690428495e-01 5.6736326218e-01 -1.3035942614e-01
2.8039062023e-01 5.6564450264e-01 -1.3036008179e-01
2.9075193405e-01 5.6041014194e-01 -1.3036198914e-01
2.9418945312e-01 5.5861324072e-01 -1.3036261499e-01
3.0442380905e-01 5.5310547352e-01 -1.3036446273e-01
3.1119140983e-01 5.4933589697e-01 -1.3036568463e-01
3.1456053257e-01 5.4742187262e-01 -1.3036628067e-01
3.3121094108e-01 5.3751951456e-01 -1.3036921620e-01
3.3450195193e-01 5.3548824787e-01 -1.3036979735e-01
3.3779296279e-01 5.3341794014e-01 -1.3037036359e-01
3.4755858779e-01 5.2712887526e-01 -1.3037204742e-01
3.5400390625e-01 5.2283203602e-01 -1.3037313521e-01
3.5719725490e-01 5.2064454556e-01 -1.3037368655e-01
3.6039060354e-01 5.1843750477e-01 -1.3037422299e-01
3.6356443167e-01 5.1623046398e-01 -1.3037475944e-01
3.6672851443e-01 5.1398438215e-01 -1.3037528098e-01
3.7613281608e-01 5.0714844465e-01 -1.3037683070e-01
3.7923827767e-01 5.0484371185e-01 -1.3037733734e-01
3.8846677542e-01 4.9777343869e-01 -1.3037882745e-01
3.9152342081e-01 4.9539062381e-01 -1.3037931919e-01
3.9455077052e-01 4.9298825860e-01 -1.3037979603e-01
4.0057617426e-01 4.8810544610e-01 -1.3038074970e-01
4.0654295683e-01 4.8316404223e-01 -1.3038168848e-01
4.0950194001e-01 4.8066404462e-01 -1.3038215041e-01
4.1244140267e-01 4.7812497616e-01 -1.3038259745e-01
4.1828122735e-01 4.7304686904e-01 -1.3038347661e-01
4.2405271530e-01 4.6787106991e-01 -1.3038434088e-01
4.3260741234e-01 4.5999997854e-01 -1.3038562238e-01
4.3541991711e-01 4.5732420683e-01 -1.3038602471e-01
4.4099608064e-01 4.5195311308e-01 -1.3038682938e-01
4.4924804568e-01 4.4376951456e-01 -1.3038800657e-01
4.5196288824e-01 4.4099608064e-01 -1.3038837910e-01
4.6265622973e-01 4.2978513241e-01 -1.3038985431e-01
4.6790036559e-01 4.2408201098e-01 -1.3039053977e-01
4.7049802542e-01 4.2119139433e-01 -1.3039088249e-01
4.7562497854e-01 4.1539061069e-01 -1.3039155304e-01
4.7817382216e-01 4.1248047352e-01 -1.3039188087e-01
4.8069334030e-01 4.0953123569e-01 -1.3039220870e-01
4.8319333792e-01 4.0658202767e-01 -1.3039252162e-01
4.8568359017e-01 4.0361326933e-01 -1.3039281964e-01
4.9303710461e-01 3.9458984137e-01 -1.3039372861e-01
4.9544921517e-01 3.9156249166e-01 -1.3039401174e-01
5.0257813931e-01 3.8238281012e-01 -1.3039483130e-01
5.0491207838e-01 3.7929686904e-01 -1.3039509952e-01
5.0723630190e-01 3.7619140744e-01 -1.3039536774e-01
5.1181638241e-01 3.6994138360e-01 -1.3039587438e-01
5.1407223940e-01 3.6679688096e-01 -1.3039611280e-01
5.1631832123e-01 3.6363279819e-01 -1.3039635122e-01
5.1853513718e-01 3.6044922471e-01 -1.3039657474e-01
5.2074217796e-01 3.5726562142e-01 -1.3039679825e-01
5.2291989326e-01 3.5406249762e-01 -1.3039702177e-01
5.2508789301e-01 3.5085937381e-01 -1.3039724529e-01
5.2723634243e-01 3.4761717916e-01 -1.3039745390e-01
5.2935546637e-01 3.4437498450e-01 -1.3039764762e-01
5.3145503998e-01 3.4113281965e-01 -1.3039784133e-01
5.3764647245e-01 3.3128905296e-01 -1.3039840758e-01
5.4167968035e-01 3.2466796041e-01 -1.3039875031e-01
5.4366207123e-01 3.2134765387e-01 -1.3039891422e-01
5.4756832123e-01 3.1464841962e-01 -1.3039922714e-01
5.5512696505e-01 3.0111327767e-01 -1.3039976358e-01
5.6057614088e-01 2.9083985090e-01 -1.3040012121e-01
5.6235349178e-01 2.8740233183e-01 -1.3040024042e-01
5.6410157681e-01 2.8394529223e-01 -1.3040032983e-01
5.6754881144e-01 2.7701172233e-01 -1.3040050864e-01
5.6922852993e-01 2.7351561189e-01 -1.3040059805e-01
5.7089841366e-01 2.7001953125e-01 -1.3040067255e-01
5.7254880667e-01 2.6650390029e-01 -1.3040074706e-01
5.7416993380e-01 2.6298826933e-01 -1.3040080667e-01
5.7577145100e-01 2.5947263837e-01 -1.3040088117e-01
5.7891601324e-01 2.5238281488e-01 -1.3040097058e-01
5.8045899868e-01 2.4882811308e-01 -1.3040101528e-01
5.8197265863e-01 2.4525390565e-01 -1.3040105999e-01
5.8493161201e-01 2.3810546100e-01 -1.3040110469e-01
5.8781248331e-01 2.3089842498e-01 -1.3040113449e-01
5.9060543776e-01 2.2367186844e-01 -1.3040114939e-01
5.9196287394e-01 2.2001951933e-01 -1.3040113449e-01
5.9461915493e-01 2.1273437142e-01 -1.3040111959e-01
5.9591794014e-01 2.0908202231e-01 -1.3040108979e-01
5.9965819120e-01 1.9808593392e-01 -1.3040100038e-01
6.0433590412e-01 1.8330077827e-01 -1.3040079176e-01
6.0544919968e-01 1.7958983779e-01 -1.3040071726e-01
6.0654294491e-01 1.7587889731e-01 -1.3040064275e-01
6.0966795683e-01 1.6468749940e-01 -1.3040038943e-01
6.1067378521e-01 1.6093750298e-01 -1.3040028512e-01
6.1259764433e-01 1.5343749523e-01 -1.3040007651e-01
6.1531245708e-01 1.4212889969e-01 -1.3039971888e-01
6.1701172590e-01 1.3457031548e-01 -1.3039945066e-01
6.1783200502e-01 1.3078124821e-01 -1.3039931655e-01
6.1862301826e-01 1.2699218094e-01 -1.3039916754e-01
6.1938476562e-01 1.2318359315e-01 -1.3039900362e-01
6.2084960938e-01 1.1558593810e-01 -1.3039867580e-01
6.2154293060e-01 1.1175780743e-01 -1.3039851189e-01
6.2410151958e-01 9.6484370530e-02 -1.3039776683e-01
6.2523436546e-01 8.8808588684e-02 -1.3039736450e-01
6.2627929449e-01 8.1132814288e-02 -1.3039693236e-01
6.2675780058e-01 7.7285155654e-02 -1.3039670885e-01
6.2722653151e-01 7.3437497020e-02 -1.3039647043e-01
6.2765622139e-01 6.9589845836e-02 -1.3039624691e-01
6.2807613611e-01 6.5742187202e-02 -1.3039600849e-01
6.2917965651e-01 5.4160155356e-02 -1.3039526343e-01
6.3005858660e-01 4.2578123510e-02 -1.3039445877e-01
6.3073241711e-01 3.0976561829e-02 -1.3039359450e-01
6.3106441498e-01 2.3222655058e-02 -1.3039301336e-01
6.3129884005e-01 1.5488280915e-02 -1.3039238751e-01
6.3138669729e-01 1.1601562612e-02 -1.3039207458e-01
6.3147461414e-01 3.8671873044e-03 -1.3039141893e-01
6.3147461414e-01 -3.8867187686e-03 -1.3039074838e-01
6.3136714697e-01 -1.1640625075e-02 -1.3039004803e-01
6.3128906488e-01 -1.5507812612e-02 -1.3038969040e-01
6.3104492426e-01 -2.3261718452e-02 -1.3038897514e-01
6.3028317690e-01 -3.8730468601e-02 -1.3038745522e-01
6.2975585461e-01 -4.6464841813e-02 -1.3038668036e-01
6.2841796875e-01 -6.1914060265e-02 -1.3038502634e-01
6.2802731991e-01 -6.5761715174e-02 -1.3038460910e-01
6.2716794014e-01 -7.3457032442e-02 -1.3038372993e-01
6.2669920921e-01 -7.7304683626e-02 -1.3038329780e-01
6.2570309639e-01 -8.5000000894e-02 -1.3038240373e-01
6.2516599894e-01 -8.8828124106e-02 -1.3038195670e-01
6.2341797352e-01 -1.0033202916e-01 -1.3038055599e-01
6.2279295921e-01 -1.0414062440e-01 -1.3038007915e-01
6.2076169252e-01 -1.1558593810e-01 -1.3037861884e-01
6.2003904581e-01 -1.1939452589e-01 -1.3037814200e-01
6.1851561069e-01 -1.2699218094e-01 -1.3037712872e-01
6.1772459745e-01 -1.3078124821e-01 -1.3037662208e-01
6.1691403389e-01 -1.3457031548e-01 -1.3037610054e-01
6.1607420444e-01 -1.3835936785e-01 -1.3037559390e-01
6.1340820789e-01 -1.4966796339e-01 -1.3037399948e-01
6.1248046160e-01 -1.5343749523e-01 -1.3037346303e-01
6.1152344942e-01 -1.5718749166e-01 -1.3037292659e-01
6.0851562023e-01 -1.6841796041e-01 -1.3037125766e-01
6.0531246662e-01 -1.7958983779e-01 -1.3036955893e-01
6.0418945551e-01 -1.8330077827e-01 -1.3036897779e-01
5.9950196743e-01 -1.9806639850e-01 -1.3036663830e-01
5.9827148914e-01 -2.0173828304e-01 -1.3036604226e-01
5.9702146053e-01 -2.0541015267e-01 -1.3036543131e-01
5.9445309639e-01 -2.1271483600e-01 -1.3036420941e-01
5.9313476086e-01 -2.1634764969e-01 -1.3036359847e-01
5.9178709984e-01 -2.1998046339e-01 -1.3036297262e-01
5.8475583792e-01 -2.3800781369e-01 -1.3035981357e-01
5.8328121901e-01 -2.4160155654e-01 -1.3035915792e-01
5.8177733421e-01 -2.4517577887e-01 -1.3035851717e-01
5.8026367426e-01 -2.4873046577e-01 -1.3035784662e-01
5.7715821266e-01 -2.5583982468e-01 -1.3035653532e-01
5.7069337368e-01 -2.6992186904e-01 -1.3035383821e-01
5.6388670206e-01 -2.8382810950e-01 -1.3035108149e-01
5.5672848225e-01 -2.9757812619e-01 -1.3034826517e-01
5.5489253998e-01 -3.0099609494e-01 -1.3034754992e-01
5.5303710699e-01 -3.0439451337e-01 -1.3034683466e-01
5.5115234852e-01 -3.0777344108e-01 -1.3034611940e-01
5.4924803972e-01 -3.1115233898e-01 -1.3034537435e-01
5.4143553972e-01 -3.2453125715e-01 -1.3034243882e-01
5.3943359852e-01 -3.2783201337e-01 -1.3034169376e-01
5.3121089935e-01 -3.4097656608e-01 -1.3033868372e-01
5.2911132574e-01 -3.4421873093e-01 -1.3033793867e-01
5.2698242664e-01 -3.4746092558e-01 -1.3033716381e-01
5.2483397722e-01 -3.5068359971e-01 -1.3033638895e-01
5.2267575264e-01 -3.5390624404e-01 -1.3033562899e-01
5.1828122139e-01 -3.6027342081e-01 -1.3033406436e-01
5.0927734375e-01 -3.7289062142e-01 -1.3033092022e-01
5.0465816259e-01 -3.7910154462e-01 -1.3032932580e-01
5.0231444836e-01 -3.8218748569e-01 -1.3032852113e-01
4.9757811427e-01 -3.8832029700e-01 -1.3032691181e-01
4.9518552423e-01 -3.9136716723e-01 -1.3032610714e-01
4.9034178257e-01 -3.9740234613e-01 -1.3032448292e-01
4.8789060116e-01 -4.0041014552e-01 -1.3032366335e-01
4.8541989923e-01 -4.0337890387e-01 -1.3032284379e-01
4.8042967916e-01 -4.0929687023e-01 -1.3032118976e-01
4.7790038586e-01 -4.1224607825e-01 -1.3032037020e-01
4.7022458911e-01 -4.2095702887e-01 -1.3031785190e-01
4.6762692928e-01 -4.2382812500e-01 -1.3031701744e-01
4.5974609256e-01 -4.3236327171e-01 -1.3031448424e-01
4.5439451933e-01 -4.3796873093e-01 -1.3031277061e-01
4.5169919729e-01 -4.4074216485e-01 -1.3031192124e-01
4.4898435473e-01 -4.4349607825e-01 -1.3031107187e-01
4.4349607825e-01 -4.4898435473e-01 -1.3030932844e-01
4.4073241949e-01 -4.5167967677e-01 -1.3030847907e-01
4.3233397603e-01 -4.5970702171e-01 -1.3030585647e-01
4.2666015029e-01 -4.6498045325e-01 -1.3030411303e-01
4.2090818286e-01 -4.7017577291e-01 -1.3030235469e-01
4.1510739923e-01 -4.7529295087e-01 -1.3030058146e-01
4.1217771173e-01 -4.7783201933e-01 -1.3029970229e-01
4.0923827887e-01 -4.8035153747e-01 -1.3029880822e-01
4.0627929568e-01 -4.8285156488e-01 -1.3029792905e-01
4.0330076218e-01 -4.8533201218e-01 -1.3029703498e-01
3.9731445909e-01 -4.9023437500e-01 -1.3029523194e-01
3.9125975966e-01 -4.9505859613e-01 -1.3029344380e-01
3.8821288943e-01 -4.9746093154e-01 -1.3029253483e-01
3.8515624404e-01 -4.9982419610e-01 -1.3029162586e-01
3.8208007812e-01 -5.0216794014e-01 -1.3029073179e-01
3.6962890625e-01 -5.1138669252e-01 -1.3028709590e-01
3.6648437381e-01 -5.1363277435e-01 -1.3028617203e-01
3.6332029104e-01 -5.1587891579e-01 -1.3028526306e-01
3.6014646292e-01 -5.1808589697e-01 -1.3028433919e-01
3.5053709149e-01 -5.2462887764e-01 -1.3028159738e-01
3.4731444716e-01 -5.2675777674e-01 -1.3028067350e-01
3.4407225251e-01 -5.2886718512e-01 -1.3027976453e-01
3.4082031250e-01 -5.3097653389e-01 -1.3027882576e-01
3.3754882216e-01 -5.3304684162e-01 -1.3027790189e-01
3.3097654581e-01 -5.3714841604e-01 -1.3027605414e-01
3.2435545325e-01 -5.4115235806e-01 -1.3027419150e-01
3.2102537155e-01 -5.4314452410e-01 -1.3027326763e-01
3.0759763718e-01 -5.5083984137e-01 -1.3026952744e-01
2.9739257693e-01 -5.5638670921e-01 -1.3026672602e-01
2.8364256024e-01 -5.6351560354e-01 -1.3026298583e-01
2.7670899034e-01 -5.6693357229e-01 -1.3026110828e-01
2.7321287990e-01 -5.6861329079e-01 -1.3026015460e-01
2.6972654462e-01 -5.7027339935e-01 -1.3025921583e-01
2.6622068882e-01 -5.7191407681e-01 -1.3025827706e-01
2.5916990638e-01 -5.7513672113e-01 -1.3025639951e-01
2.4853515625e-01 -5.7980465889e-01 -1.3025355339e-01
2.4139647186e-01 -5.8279293776e-01 -1.3025167584e-01
2.3062498868e-01 -5.8712887764e-01 -1.3024884462e-01
2.1977537870e-01 -5.9126949310e-01 -1.3024601340e-01
2.1249999106e-01 -5.9390622377e-01 -1.3024412096e-01
2.0885741711e-01 -5.9519529343e-01 -1.3024318218e-01
2.0519530773e-01 -5.9646481276e-01 -1.3024224341e-01
2.0153319836e-01 -5.9769529104e-01 -1.3024128973e-01
1.9786132872e-01 -5.9892576933e-01 -1.3024036586e-01
1.9417968392e-01 -6.0011714697e-01 -1.3023941219e-01
1.9048827887e-01 -6.0128903389e-01 -1.3023847342e-01
1.6822265089e-01 -6.0787105560e-01 -1.3023282588e-01
1.6449218988e-01 -6.0888671875e-01 -1.3023188710e-01
1.5700194240e-01 -6.1085933447e-01 -1.3023000956e-01
1.5325194597e-01 -6.1179685593e-01 -1.3022907078e-01
1.4949218929e-01 -6.1273437738e-01 -1.3022813201e-01
1.4196288586e-01 -6.1451172829e-01 -1.3022626936e-01
1.3818359375e-01 -6.1537110806e-01 -1.3022533059e-01
1.2683592737e-01 -6.1779296398e-01 -1.3022254407e-01
1.2303710729e-01 -6.1855465174e-01 -1.3022160530e-01
1.1923827976e-01 -6.1929684877e-01 -1.3022068143e-01
1.1543945223e-01 -6.2000000477e-01 -1.3021974266e-01
1.1163085699e-01 -6.2070310116e-01 -1.3021881878e-01
1.0400390625e-01 -6.2201172113e-01 -1.3021695614e-01
9.6357420087e-02 -6.2324219942e-01 -1.3021512330e-01
7.7197261155e-02 -6.2587887049e-01 -1.3021051884e-01
6.9511719048e-02 -6.2675780058e-01 -1.3020868599e-01
6.5664060414e-02 -6.2716794014e-01 -1.3020777702e-01
6.1806637794e-02 -6.2755858898e-01 -1.3020686805e-01
5.7958982885e-02 -6.2792968750e-01 -1.3020595908e-01
5.4101560265e-02 -6.2826168537e-01 -1.3020505011e-01
4.2529296130e-02 -6.2914061546e-01 -1.3020233810e-01
3.0947264284e-02 -6.2980467081e-01 -1.3019964099e-01
1.5478515066e-02 -6.3035154343e-01 -1.3019606471e-01
7.7441404574e-03 -6.3048827648e-01 -1.3019429147e-01
-1.1601562612e-02 -6.3041013479e-01 -1.3018988073e-01
-1.9335936755e-02 -6.3021481037e-01 -1.3018813729e-01
-2.7070311829e-02 -6.2992185354e-01 -1.3018640876e-01
-5.4091796279e-02 -6.2814450264e-01 -1.3018038869e-01
-5.7939451188e-02 -6.2779295444e-01 -1.3017955422e-01
-6.9482423365e-02 -6.2662106752e-01 -1.3017702103e-01
-7.3330074549e-02 -6.2617188692e-01 -1.3017618656e-01
-7.7167965472e-02 -6.2570309639e-01 -1.3017535210e-01
-8.1005856395e-02 -6.2521481514e-01 -1.3017451763e-01
-8.4843747318e-02 -6.2470704317e-01 -1.3017368317e-01
-8.8671870530e-02 -6.2417966127e-01 -1.3017286360e-01
-9.2500001192e-02 -6.2361323833e-01 -1.3017204404e-01
-9.6328124404e-02 -6.2302732468e-01 -1.3017120957e-01
-1.0014647990e-01 -6.2242186069e-01 -1.3017040491e-01
-1.0396484286e-01 -6.2179684639e-01 -1.3016958535e-01
-1.2676757574e-01 -6.1751949787e-01 -1.3016475737e-01
-1.3811522722e-01 -6.1507809162e-01 -1.3016237319e-01
-1.4188475907e-01 -6.1419922113e-01 -1.3016159832e-01
-1.5316405892e-01 -6.1148434877e-01 -1.3015925884e-01
-1.7555662990e-01 -6.0541015863e-01 -1.3015468419e-01
-1.7926757038e-01 -6.0431641340e-01 -1.3015392423e-01
-1.8297851086e-01 -6.0320311785e-01 -1.3015317917e-01
-1.8666991591e-01 -6.0207027197e-01 -1.3015244901e-01
-1.9036132097e-01 -6.0089844465e-01 -1.3015170395e-01
-1.9404296577e-01 -5.9972655773e-01 -1.3015095890e-01
-2.0504882932e-01 -5.9603512287e-01 -1.3014876842e-01
-2.1234375238e-01 -5.9347653389e-01 -1.3014732301e-01
-2.1597655118e-01 -5.9214842319e-01 -1.3014660776e-01
-2.1960936487e-01 -5.9082031250e-01 -1.3014590740e-01
-2.4119140208e-01 -5.8230465651e-01 -1.3014172018e-01
-2.5186523795e-01 -5.7777345181e-01 -1.3013967872e-01
-2.5893554091e-01 -5.7462888956e-01 -1.3013835251e-01
-2.7643555403e-01 -5.6640625000e-01 -1.3013505936e-01
-2.7990233898e-01 -5.6468749046e-01 -1.3013443351e-01
-2.8680664301e-01 -5.6121093035e-01 -1.3013315201e-01
-2.9024413228e-01 -5.5943357944e-01 -1.3013252616e-01
-2.9708984494e-01 -5.5582028627e-01 -1.3013127446e-01
-3.0048826337e-01 -5.5398434401e-01 -1.3013066351e-01
-3.0726560950e-01 -5.5025386810e-01 -1.3012944162e-01
-3.1733396649e-01 -5.4449218512e-01 -1.3012765348e-01
-3.2066404819e-01 -5.4253906012e-01 -1.3012705743e-01
-3.2729491591e-01 -5.3855466843e-01 -1.3012589514e-01
-3.3059570193e-01 -5.3654295206e-01 -1.3012531400e-01
-3.3387693763e-01 -5.3449219465e-01 -1.3012474775e-01
-3.4041014314e-01 -5.3035157919e-01 -1.3012361526e-01
-3.4689453244e-01 -5.2613282204e-01 -1.3012249768e-01
-3.5968747735e-01 -5.1746094227e-01 -1.3012033701e-01
-3.6286130548e-01 -5.1523435116e-01 -1.3011980057e-01
-3.6915037036e-01 -5.1074218750e-01 -1.3011875749e-01
-3.7227538228e-01 -5.0845700502e-01 -1.3011823595e-01
-3.7848630548e-01 -5.0382810831e-01 -1.3011723757e-01
-3.8463866711e-01 -4.9914062023e-01 -1.3011622429e-01
-3.8768553734e-01 -4.9677732587e-01 -1.3011574745e-01
-3.9073240757e-01 -4.9437499046e-01 -1.3011525571e-01
-3.9374998212e-01 -4.9197265506e-01 -1.3011477888e-01
-3.9676755667e-01 -4.8955076933e-01 -1.3011430204e-01
-3.9975586534e-01 -4.8710936308e-01 -1.3011382520e-01
-4.0273436904e-01 -4.8464843631e-01 -1.3011336327e-01
-4.0570312738e-01 -4.8214843869e-01 -1.3011290133e-01
-4.1158202291e-01 -4.7714841366e-01 -1.3011199236e-01
-4.1450193524e-01 -4.7460937500e-01 -1.3011156023e-01
-4.1741210222e-01 -4.7205075622e-01 -1.3011111319e-01
-4.2885741591e-01 -4.6166014671e-01 -1.3010939956e-01
-4.3168944120e-01 -4.5902341604e-01 -1.3010898232e-01
-4.3449217081e-01 -4.5636716485e-01 -1.3010857999e-01
-4.4281250238e-01 -4.4828122854e-01 -1.3010738790e-01
-4.5368161798e-01 -4.3726560473e-01 -1.3010586798e-01
-4.5900389552e-01 -4.3166014552e-01 -1.3010512292e-01
-4.6687498689e-01 -4.2314451933e-01 -1.3010406494e-01
-4.6945312619e-01 -4.2027342319e-01 -1.3010373712e-01
-4.7202146053e-01 -4.1738280654e-01 -1.3010340929e-01
-4.7458007932e-01 -4.1447263956e-01 -1.3010306656e-01
-4.7710937262e-01 -4.1156250238e-01 -1.3010273874e-01
-4.8706054688e-01 -3.9972653985e-01 -1.3010150194e-01
-4.8950195312e-01 -3.9671874046e-01 -1.3010120392e-01
-4.9433591962e-01 -3.9068359137e-01 -1.3010062277e-01
-4.9671873450e-01 -3.8763672113e-01 -1.3010035455e-01
-5.0376951694e-01 -3.7843748927e-01 -1.3009953499e-01
-5.0836914778e-01 -3.7222656608e-01 -1.3009902835e-01
-5.1290035248e-01 -3.6595702171e-01 -1.3009853661e-01
-5.2172851562e-01 -3.5326170921e-01 -1.3009762764e-01
-5.2387696505e-01 -3.5003906488e-01 -1.3009741902e-01
-5.2601563931e-01 -3.4681639075e-01 -1.3009721041e-01
-5.2813476324e-01 -3.4359374642e-01 -1.3009700179e-01
-5.3023433685e-01 -3.4033203125e-01 -1.3009680808e-01
-5.3640621901e-01 -3.3052733541e-01 -1.3009625673e-01
-5.3842771053e-01 -3.2722654939e-01 -1.3009607792e-01
-5.4041993618e-01 -3.2390624285e-01 -1.3009591401e-01
-5.4239255190e-01 -3.2058593631e-01 -1.3009575009e-01
-5.4435545206e-01 -3.1726562977e-01 -1.3009558618e-01
-5.5382812023e-01 -3.0041015148e-01 -1.3009490073e-01
-5.5747067928e-01 -2.9359373450e-01 -1.3009464741e-01
-5.5925780535e-01 -2.9015624523e-01 -1.3009454310e-01
-5.6102538109e-01 -2.8671875596e-01 -1.3009443879e-01
-5.6620115042e-01 -2.7634763718e-01 -1.3009415567e-01
-5.6789058447e-01 -2.7287107706e-01 -1.3009406626e-01
-5.6955075264e-01 -2.6937499642e-01 -1.3009400666e-01
-5.7119137049e-01 -2.6587888598e-01 -1.3009391725e-01
-5.7281249762e-01 -2.6236328483e-01 -1.3009385765e-01
-5.8208006620e-01 -2.4111327529e-01 -1.3009358943e-01
-5.8354490995e-01 -2.3753905296e-01 -1.3009355962e-01
-5.8641600609e-01 -2.3035155237e-01 -1.3009352982e-01
-5.9321290255e-01 -2.1226562560e-01 -1.3009355962e-01
-5.9450191259e-01 -2.0861327648e-01 -1.3009357452e-01
-5.9824216366e-01 -1.9763670862e-01 -1.3009367883e-01
-6.0062497854e-01 -1.9027343392e-01 -1.3009376824e-01
-6.0177731514e-01 -1.8658202887e-01 -1.3009382784e-01
-6.0402339697e-01 -1.7919921875e-01 -1.3009394705e-01
-6.0511720181e-01 -1.7548827827e-01 -1.3009403646e-01
-6.1116206646e-01 -1.5308593214e-01 -1.3009458780e-01
-6.1208981276e-01 -1.4933593571e-01 -1.3009470701e-01
-6.1299800873e-01 -1.4558593929e-01 -1.3009482622e-01
-6.1387693882e-01 -1.4181640744e-01 -1.3009494543e-01
-6.1557614803e-01 -1.3427734375e-01 -1.3009521365e-01
-6.1638671160e-01 -1.3048827648e-01 -1.3009534776e-01
-6.1717772484e-01 -1.2669920921e-01 -1.3009551167e-01
-6.1794918776e-01 -1.2291015685e-01 -1.3009566069e-01
-6.1941403151e-01 -1.1533202976e-01 -1.3009597361e-01
-6.2010741234e-01 -1.1152343452e-01 -1.3009615242e-01
-6.2142574787e-01 -1.0390624404e-01 -1.3009651005e-01
-6.2324219942e-01 -9.2441402376e-02 -1.3009709120e-01
-6.2484371662e-01 -8.0957032740e-02 -1.3009771705e-01
-6.2532222271e-01 -7.7128902078e-02 -1.3009794056e-01
-6.2664061785e-01 -6.5605469048e-02 -1.3009864092e-01
-6.2740230560e-01 -5.7910155505e-02 -1.3009913266e-01
-6.2774413824e-01 -5.4062500596e-02 -1.3009938598e-01
-6.2864255905e-01 -4.2500000447e-02 -1.3010019064e-01
-6.2888669968e-01 -3.8632810116e-02 -1.3010047376e-01
-6.2912106514e-01 -3.4785155207e-02 -1.3010074198e-01
-6.2931638956e-01 -3.0917968601e-02 -1.3010104001e-01
-6.2950193882e-01 -2.7050780132e-02 -1.3010132313e-01
-6.2989258766e-01 -1.5468749218e-02 -1.3010224700e-01
-6.2998044491e-01 -1.1601562612e-02 -1.3010255992e-01
-6.3003903627e-01 -7.7343746088e-03 -1.3010287285e-01
-6.3007813692e-01 -3.8671873044e-03 -1.3010320067e-01
-5.7768553495e-01 7.0898435079e-03 -1.3011609018e-01
-5.7763671875e-01 1.0625000112e-02 -1.3011641800e-01
-5.7755857706e-01 1.4179687016e-02 -1.3011674583e-01
-5.7746094465e-01 1.7714843154e-02 -1.3011707366e-01
-5.7720702887e-01 2.4804687127e-02 -1.3011774421e-01
-5.7686519623e-01 3.1894531101e-02 -1.3011842966e-01
-5.7666015625e-01 3.5429686308e-02 -1.3011878729e-01
-5.7618165016e-01 4.2500000447e-02 -1.3011951745e-01
-5.7562500238e-01 4.9570310861e-02 -1.3012024760e-01
-5.7531249523e-01 5.3105466068e-02 -1.3012062013e-01
-5.7461911440e-01 6.0156248510e-02 -1.3012139499e-01
-5.7341796160e-01 7.0722654462e-02 -1.3012258708e-01
-5.7297849655e-01 7.4238277972e-02 -1.3012298942e-01
-5.7250976562e-01 7.7753901482e-02 -1.3012340665e-01
-5.7151365280e-01 8.4785155952e-02 -1.3012424111e-01
-5.7043945789e-01 9.1777339578e-02 -1.3012509048e-01
-5.6986325979e-01 9.5273435116e-02 -1.3012552261e-01
-5.6927734613e-01 9.8769530654e-02 -1.3012595475e-01
-5.6667965651e-01 1.1271484196e-01 -1.3012775779e-01
-5.6598633528e-01 1.1619140208e-01 -1.3012821972e-01
-5.6526368856e-01 1.1966796964e-01 -1.3012868166e-01
-5.6452149153e-01 1.2312499434e-01 -1.3012915850e-01
-5.6296873093e-01 1.3005858660e-01 -1.3013011217e-01
-5.6048828363e-01 1.4039061964e-01 -1.3013157248e-01
-5.5873048306e-01 1.4726562798e-01 -1.3013257086e-01
-5.5495113134e-01 1.6093750298e-01 -1.3013461232e-01
-5.5190426111e-01 1.7111328244e-01 -1.3013619184e-01
-5.4976558685e-01 1.7789061368e-01 -1.3013726473e-01
-5.4754883051e-01 1.8460936844e-01 -1.3013835251e-01
-5.4640620947e-01 1.8796874583e-01 -1.3013890386e-01
-5.4524415731e-01 1.9132812321e-01 -1.3013945520e-01
-5.4406249523e-01 1.9466796517e-01 -1.3014002144e-01
-5.4163086414e-01 2.0132811368e-01 -1.3014115393e-01
-5.3784179688e-01 2.1126952767e-01 -1.3014286757e-01
-5.3653317690e-01 2.1457031369e-01 -1.3014346361e-01
-5.3386718035e-01 2.2113281488e-01 -1.3014462590e-01
-5.3249996901e-01 2.2441405058e-01 -1.3014523685e-01
-5.3112304211e-01 2.2767578065e-01 -1.3014581800e-01
-5.2684569359e-01 2.3742187023e-01 -1.3014765084e-01
-5.2538084984e-01 2.4064452946e-01 -1.3014826179e-01
-5.2389645576e-01 2.4386718869e-01 -1.3014887273e-01
-5.2086913586e-01 2.5027343631e-01 -1.3015010953e-01
-5.1932615042e-01 2.5347656012e-01 -1.3015075028e-01
-5.1776367426e-01 2.5666016340e-01 -1.3015137613e-01
-5.1618164778e-01 2.5982421637e-01 -1.3015201688e-01
-5.1458007097e-01 2.6298826933e-01 -1.3015265763e-01
-5.1295894384e-01 2.6615235209e-01 -1.3015329838e-01
-5.1131832600e-01 2.6929685473e-01 -1.3015395403e-01
-5.0797849894e-01 2.7554687858e-01 -1.3015525043e-01
-5.0628906488e-01 2.7865234017e-01 -1.3015590608e-01
-4.9930661917e-01 2.9101562500e-01 -1.3015855849e-01
-4.9750974774e-01 2.9406249523e-01 -1.3015924394e-01
-4.9202147126e-01 3.0318358541e-01 -1.3016127050e-01
-4.8827147484e-01 3.0919921398e-01 -1.3016265631e-01
-4.8636716604e-01 3.1218749285e-01 -1.3016335666e-01
-4.8444333673e-01 3.1517577171e-01 -1.3016404212e-01
-4.7657224536e-01 3.2697266340e-01 -1.3016685843e-01
-4.7252929211e-01 3.3279296756e-01 -1.3016828895e-01
-4.6841797233e-01 3.3857420087e-01 -1.3016971946e-01
-4.6211913228e-01 3.4714841843e-01 -1.3017190993e-01
-4.5565429330e-01 3.5560545325e-01 -1.3017411530e-01
-4.5346677303e-01 3.5839843750e-01 -1.3017486036e-01
-4.4679686427e-01 3.6667966843e-01 -1.3017708063e-01
-4.4227537513e-01 3.7214842439e-01 -1.3017858565e-01
-4.3998044729e-01 3.7484374642e-01 -1.3017936051e-01
-4.3767577410e-01 3.7753906846e-01 -1.3018010557e-01
-4.3535155058e-01 3.8023436069e-01 -1.3018086553e-01
-4.3301758170e-01 3.8289061189e-01 -1.3018164039e-01
-4.3066406250e-01 3.8554686308e-01 -1.3018240035e-01
-4.2829099298e-01 3.8818359375e-01 -1.3018317521e-01
-4.2589843273e-01 3.9080077410e-01 -1.3018393517e-01
-4.2349609733e-01 3.9341795444e-01 -1.3018471003e-01
-4.2108398676e-01 3.9601561427e-01 -1.3018548489e-01
-4.1619139910e-01 4.0115234256e-01 -1.3018704951e-01
-4.0874999762e-01 4.0874999762e-01 -1.3018940389e-01
-4.0623044968e-01 4.1124999523e-01 -1.3019019365e-01
-4.0370115638e-01 4.1374999285e-01 -1.3019098341e-01
-3.9860349894e-01 4.1867187619e-01 -1.3019257784e-01
-3.9602538943e-01 4.2111328244e-01 -1.3019336760e-01
-3.9343750477e-01 4.2353513837e-01 -1.3019417226e-01
-3.9083984494e-01 4.2593750358e-01 -1.3019497693e-01
-3.8822263479e-01 4.2833983898e-01 -1.3019578159e-01
-3.8558593392e-01 4.3072265387e-01 -1.3019658625e-01
-3.8293945789e-01 4.3306639791e-01 -1.3019739091e-01
-3.8027343154e-01 4.3541014194e-01 -1.3019821048e-01
-3.7759765983e-01 4.3775388598e-01 -1.3019901514e-01
-3.7220701575e-01 4.4232422113e-01 -1.3020065427e-01
-3.6948242784e-01 4.4460937381e-01 -1.3020145893e-01
-3.6674803495e-01 4.4687497616e-01 -1.3020227849e-01
-3.6400389671e-01 4.4912108779e-01 -1.3020309806e-01
-3.6124023795e-01 4.5134764910e-01 -1.3020393252e-01
-3.5846677423e-01 4.5355468988e-01 -1.3020475209e-01
-3.5288086534e-01 4.5792967081e-01 -1.3020640612e-01
-3.5006836057e-01 4.6007812023e-01 -1.3020722568e-01
-3.4440428019e-01 4.6435546875e-01 -1.3020889461e-01
-3.3580076694e-01 4.7062498331e-01 -1.3021139801e-01
-3.2999998331e-01 4.7470700741e-01 -1.3021308184e-01
-3.2416015863e-01 4.7873046994e-01 -1.3021475077e-01
-3.2122069597e-01 4.8072263598e-01 -1.3021560013e-01
-3.1826171279e-01 4.8267576098e-01 -1.3021644950e-01
-3.1530272961e-01 4.8462888598e-01 -1.3021728396e-01
-3.0632811785e-01 4.9037107825e-01 -1.3021983206e-01
-3.0332031846e-01 4.9224609137e-01 -1.3022066653e-01
-2.9725584388e-01 4.9593749642e-01 -1.3022238016e-01
-2.9115232825e-01 4.9955075979e-01 -1.3022407889e-01
-2.8499999642e-01 5.0308591127e-01 -1.3022579253e-01
-2.7257812023e-01 5.0994139910e-01 -1.3022921979e-01
-2.5363281369e-01 5.1964843273e-01 -1.3023437560e-01
-2.5043943524e-01 5.2121090889e-01 -1.3023523986e-01
-2.4403320253e-01 5.2423828840e-01 -1.3023695350e-01
-2.3757812381e-01 5.2720701694e-01 -1.3023868203e-01
-2.2784179449e-01 5.3150391579e-01 -1.3024127483e-01
-2.2130858898e-01 5.3425782919e-01 -1.3024300337e-01
-2.1802733839e-01 5.3560543060e-01 -1.3024386764e-01
-2.1473632753e-01 5.3695309162e-01 -1.3024473190e-01
-2.1143554151e-01 5.3826171160e-01 -1.3024561107e-01
-2.0813475549e-01 5.3955078125e-01 -1.3024646044e-01
-2.0481444895e-01 5.4082030058e-01 -1.3024733961e-01
