VERSION 0.7
FIELDS x y z
SIZE 4 4 4
TYPE F F F
COUNT 1 1 1
WIDTH 1380
HEIGHT 1
VIEWPOINT 0.0 0.0 0.0 1.0 0.0 0.0 0.0
POINTS 1380
DATA ascii
0.30123046 -0.20394531 -0.1314846
0.29995117 -0.20580077 -0.13147907
0.2973828 -0.20943359 -0.13146797
0.296084 -0.21124999 -0.13146232
0.29476562 -0.2130664 -0.1314566
0.28939453 -0.22019531 -0.13143334
0.28801757 -0.22195312 -0.13142735
0.2866504 -0.22371094 -0.13142143
0.2852539 -0.22544922 -0.13141537
0.2838574 -0.2271875 -0.1314093
0.2810156 -0.23064452 -0.13139693
0.2752246 -0.23742187 -0.13137172
0.27374023 -0.23910156 -0.13136524
0.27225587 -0.24076171 -0.13135879
0.27075195 -0.24240234 -0.13135223
0.2692578 -0.24404296 -0.13134567
0.2677539 -0.2456836 -0.1313391
0.2662207 -0.24730468 -0.13133243
0.2646875 -0.24892578 -0.13132572
0.26314452 -0.25052735 -0.13131897
0.2615918 -0.2521289 -0.13131218
0.2600195 -0.25371093 -0.1313053
0.2520508 -0.2615039 -0.13127036
0.2504297 -0.26302734 -0.13126332
0.24879882 -0.26455078 -0.13125613
0.24216796 -0.27052733 -0.13122708
0.23880859 -0.2734375 -0.13121231
0.23710936 -0.2748828 -0.13120483
0.23541015 -0.27632812 -0.13119735
0.22849609 -0.28193358 -0.13116702
0.22674803 -0.28333983 -0.13115929
0.22323242 -0.28605467 -0.13114384
0.21967773 -0.28875 -0.13112816
0.21609375 -0.29136717 -0.1311124
0.2142871 -0.29267576 -0.13110442
0.2124707 -0.29398435 -0.13109642
0.21064453 -0.2952539 -0.13108836
0.20143554 -0.30146483 -0.13104771
0.19203125 -0.30742186 -0.13100617
0.19012696 -0.3085742 -0.13099769
0.18821289 -0.30972657 -0.13098927
0.1863086 -0.31083983 -0.13098083
0.184375 -0.31195313 -0.13097233
0.18245117 -0.3130664 -0.13096379
0.18050781 -0.31416014 -0.1309552
0.1746582 -0.31736326 -0.13092929
0.16876952 -0.32046875 -0.1309031
0.1667871 -0.32148436 -0.13089432
0.1628125 -0.32343748 -0.13087665
0.15478516 -0.32726562 -0.13084106
0.15073241 -0.32910156 -0.13082309
0.14461914 -0.33173826 -0.1307959
0.14256835 -0.33259764 -0.13078678
0.14051758 -0.3334375 -0.1307777
0.13845703 -0.33427733 -0.13076854
0.13432617 -0.33589843 -0.1307502
0.13016601 -0.33748046 -0.13073166
0.12808594 -0.33824217 -0.13072242
0.12390625 -0.33972657 -0.1307038
0.121816404 -0.34046873 -0.13069446
0.11550781 -0.3425781 -0.13066635
0.10703125 -0.34521484 -0.13062851
0.10490234 -0.34583983 -0.13061912
0.098496094 -0.3476367 -0.13059047
0.09635742 -0.34822264 -0.13058093
0.094208986 -0.34876952 -0.13057137
0.09206054 -0.3493164 -0.13056178
0.083437495 -0.35136718 -0.13052322
0.08126953 -0.35183594 -0.13051356
0.07911132 -0.35232422 -0.13050392
0.07695312 -0.3527539 -0.13049422
0.07260742 -0.3536328 -0.1304748
0.07041992 -0.35404295 -0.13046502
0.06825195 -0.3544336 -0.13045529
0.06169922 -0.3555664 -0.13042599
0.059511717 -0.35589844 -0.13041618
0.052939452 -0.35685545 -0.13038677
0.035341796 -0.35880858 -0.13030791
0.026513672 -0.3594531 -0.13026829
0.02430664 -0.35958984 -0.13025841
0.022099609 -0.35970703 -0.13024849
0.017675782 -0.3598828 -0.13022868
0.015468749 -0.35998046 -0.13021877
0.011044921 -0.36007813 -0.1301989
0.008837891 -0.36009765 -0.13018897
0.0066210935 -0.36013672 -0.13017899
0.0044140625 -0.36011717 -0.13016906
-0.0022167969 -0.36007813 -0.13013923
-0.0066308593 -0.35996094 -0.1301194
-0.008837891 -0.3598828 -0.13010944
-0.011044921 -0.3598047 -0.13009952
-0.013251953 -0.35968748 -0.13008961
-0.015458984 -0.3595703 -0.13007969
-0.019853516 -0.35929686 -0.13005981
-0.022050781 -0.35916016 -0.13004993
-0.026464842 -0.35880858 -0.13003002
-0.028652344 -0.35859373 -0.13002014
-0.03524414 -0.35792968 -0.12999046
-0.037441406 -0.35767576 -0.12998058
-0.039628904 -0.35742188 -0.1299707
-0.044003904 -0.35685545 -0.12995094
-0.04620117 -0.35654297 -0.12994106
-0.052734375 -0.3555664 -0.12991153
-0.057089843 -0.35482422 -0.12989189
-0.059267577 -0.3544336 -0.12988205
-0.063593745 -0.3536328 -0.12986252
-0.06791992 -0.35277343 -0.12984295
-0.07222656 -0.35185546 -0.12982345
-0.074384764 -0.3513867 -0.12981369
-0.0765332 -0.3508984 -0.129804
-0.08082031 -0.3498828 -0.12978458
-0.085097656 -0.3488086 -0.12976524
-0.08723632 -0.3482617 -0.12975559
-0.093603514 -0.3465039 -0.12972675
-0.09572265 -0.34589842 -0.1297171
-0.09783203 -0.34529296 -0.1297076
-0.09995117 -0.34464842 -0.12969795
-0.104150385 -0.34333983 -0.12967895
-0.11042968 -0.3413086 -0.12965046
-0.11251953 -0.34058592 -0.12964095
-0.11459961 -0.33986327 -0.12963153
-0.116660155 -0.33914062 -0.12962215
-0.11873046 -0.3383789 -0.12961277
-0.12079101 -0.3376367 -0.12960339
-0.12696289 -0.33527344 -0.12957531
-0.12901367 -0.3344531 -0.12956607
-0.13105468 -0.33365235 -0.1295568
-0.13308594 -0.3328125 -0.12954754
-0.13511719 -0.33197266 -0.1295383
-0.13713866 -0.33111328 -0.12952907
-0.14717773 -0.3266211 -0.12948345
-0.15313476 -0.32378906 -0.12945633
-0.15510742 -0.3228125 -0.12944733
-0.15708007 -0.32185546 -0.12943836
-0.1590332 -0.32085937 -0.12942947
-0.16488281 -0.3178125 -0.12940277
-0.16874023 -0.31572264 -0.12938519
-0.17257813 -0.31357422 -0.12936768
-0.17449218 -0.3125 -0.12935898
-0.17639647 -0.31140625 -0.12935024
-0.17829101 -0.31027344 -0.12934159
-0.18206054 -0.30804688 -0.12932433
-0.18393554 -0.3068945 -0.12931587
-0.18580078 -0.30572265 -0.12930728
-0.18952148 -0.30339843 -0.12929031
-0.20047851 -0.29609373 -0.12924014
-0.2111621 -0.28841797 -0.12919116
-0.21291015 -0.28708982 -0.12918316
-0.21983398 -0.28171873 -0.12915134
-0.22154297 -0.28033203 -0.12914348
-0.22324218 -0.2789453 -0.1291357
-0.2249414 -0.2775586 -0.12912787
-0.22662109 -0.27615234 -0.12912017
-0.22830078 -0.2747656 -0.12911247
-0.23328124 -0.27044922 -0.12908955
-0.24140625 -0.26308593 -0.12905216
-0.2461621 -0.25855467 -0.12903023
-0.2492871 -0.25548828 -0.12901577
-0.25083008 -0.25394532 -0.12900859
-0.2523828 -0.2523828 -0.1290015
-0.25390625 -0.2508203 -0.12899448
-0.2569336 -0.24765624 -0.12898049
-0.25993162 -0.24445312 -0.1289666
-0.26140624 -0.24283202 -0.1289598
-0.26288086 -0.24121094 -0.12895294
-0.2686621 -0.23464844 -0.12892613
-0.27149412 -0.2313086 -0.128913
-0.2742871 -0.22792968 -0.12890007
-0.27566406 -0.22625 -0.12889366
-0.27704102 -0.22453125 -0.12888725
-0.27839842 -0.22281249 -0.12888096
-0.2797363 -0.22109374 -0.1288747
-0.28373048 -0.21585937 -0.12885617
-0.2850293 -0.21412109 -0.12885006
-0.2876074 -0.21058594 -0.12883808
-0.28888673 -0.20880859 -0.12883213
-0.29387695 -0.20162109 -0.12880883
-0.29508787 -0.19980468 -0.12880318
-0.29629883 -0.19798827 -0.12879756
-0.29868165 -0.19429687 -0.12878639
-0.30101562 -0.19060546 -0.12877545
-0.30216795 -0.18875 -0.12877002
-0.30666015 -0.18124999 -0.1287489
-0.310957 -0.17365234 -0.12872867
-0.3130371 -0.16980468 -0.1287188
-0.31607422 -0.16400391 -0.12870449
-0.3180371 -0.16011718 -0.12869515
-0.32089844 -0.15419921 -0.1286816
-0.32274413 -0.1502539 -0.12867282
-0.32365233 -0.14826171 -0.12866847
-0.32542968 -0.14427733 -0.12866005
-0.32882813 -0.13623047 -0.1286438
-0.33044922 -0.13216797 -0.12863597
-0.3328027 -0.12603515 -0.12862472
-0.33356446 -0.1240039 -0.12862098
-0.33575195 -0.11783203 -0.12861042
-0.33784178 -0.11162109 -0.12860027
-0.33916992 -0.10746094 -0.12859382
-0.33981445 -0.10537109 -0.12859069
-0.3404492 -0.10330078 -0.12858757
-0.34106445 -0.1011914 -0.12858452
-0.34166992 -0.09908203 -0.12858154
-0.34451172 -0.08855469 -0.1285675
-0.34503907 -0.08644531 -0.12856491
-0.34555665 -0.0843164 -0.12856232
-0.34606445 -0.082187496 -0.12855975
-0.34655273 -0.080078125 -0.12855731
-0.34703124 -0.07794922 -0.12855491
-0.3479492 -0.07367187 -0.12855026
-0.34838867 -0.07154297 -0.12854809
-0.34881836 -0.06939453 -0.12854584
-0.34963867 -0.06511719 -0.12854168
-0.35075194 -0.05865234 -0.12853584
-0.35143554 -0.05435547 -0.12853222
-0.35206053 -0.05001953 -0.1285289
-0.35237303 -0.047851562 -0.12852725
-0.35317382 -0.041367188 -0.1285229
-0.35385743 -0.034863282 -0.12851901
-0.35444334 -0.028339842 -0.12851559
-0.35489258 -0.021816406 -0.1285128
-0.3550195 -0.019628907 -0.12851192
-0.3553125 -0.013085937 -0.12850986
-0.3555371 -0.0021875 -0.12850754
-0.3367871 -0.0 -0.12859154
-0.33677733 0.0020703124 -0.1285913
-0.3367285 0.006191406 -0.12859108
-0.33668944 0.008261719 -0.128591
-0.33663085 0.010332031 -0.128591
-0.3362793 0.01857422 -0.12859157
-0.3358789 0.024785155 -0.12859264
-0.3357324 0.026835937 -0.12859303
-0.33554688 0.028886719 -0.1285936
-0.33517578 0.03300781 -0.12859477
-0.33475584 0.037128907 -0.12859616
-0.33452147 0.039179686 -0.12859699
-0.33401367 0.04328125 -0.12859875
-0.3334668 0.04736328 -0.12860073
-0.33287108 0.051445313 -0.12860298
-0.33253905 0.05347656 -0.12860416
-0.3322168 0.055546872 -0.12860535
-0.331875 0.057578124 -0.12860665
-0.33151367 0.059609372 -0.12860802
-0.33115235 0.061621092 -0.12860939
-0.33037108 0.065703124 -0.1286124
-0.3299707 0.06771484 -0.12861396
-0.32955077 0.06976562 -0.12861565
-0.32912108 0.071777344 -0.12861732
-0.32867187 0.07378906 -0.12861907
-0.32822266 0.07582031 -0.12862083
-0.3277539 0.07783203 -0.1286227
-0.3267871 0.08185547 -0.12862659
-0.32524413 0.08785156 -0.12863281
-0.32470703 0.08984375 -0.12863502
-0.3241406 0.09183594 -0.12863727
-0.32121092 0.10175781 -0.12864925
-0.32058594 0.103710935 -0.12865184
-0.31929687 0.10765625 -0.12865715
-0.31864256 0.10960937 -0.12865986
-0.3165918 0.11546875 -0.12866837
-0.31588867 0.11742187 -0.1286713
-0.31515625 0.119335935 -0.12867431
-0.31443357 0.12128906 -0.12867737
-0.3136914 0.12320312 -0.12868045
-0.3129297 0.12513672 -0.12868363
-0.31217772 0.12705077 -0.12868686
-0.30981445 0.13279296 -0.12869674
-0.30899414 0.1346875 -0.12870021
-0.30734375 0.13849609 -0.12870723
-0.30563477 0.1422461 -0.12871444
-0.30475587 0.1441211 -0.12871814
-0.30387694 0.1459961 -0.12872188
-0.30208007 0.14972655 -0.1287295
-0.30117187 0.15158203 -0.12873337
-0.29739258 0.15896484 -0.12874943
-0.296416 0.16076171 -0.12875362
-0.29444334 0.16441406 -0.12876205
-0.29344726 0.16623047 -0.12876633
-0.2893164 0.17339844 -0.12878403
-0.28610352 0.17871094 -0.12879783
-0.2816699 0.18570311 -0.12881683
-0.2805371 0.18744141 -0.12882172
-0.27824217 0.1908789 -0.12883167
-0.2770703 0.19259766 -0.1288367
-0.27470702 0.19599609 -0.12884693
-0.2735156 0.19769531 -0.12885208
-0.27230468 0.19935547 -0.1288573
-0.26862305 0.204375 -0.12887329
-0.26737306 0.20603515 -0.12887862
-0.26612303 0.20767577 -0.12888412
-0.26484373 0.2093164 -0.12888965
-0.26356444 0.21095702 -0.12889518
-0.2622754 0.21257812 -0.1289008
-0.25967774 0.21578124 -0.12891208
-0.25835937 0.2173828 -0.12891784
-0.25703123 0.21896484 -0.12892357
-0.2543457 0.2221289 -0.12893528
-0.25298828 0.2236914 -0.1289412
-0.25163084 0.2252539 -0.12894714
-0.24747069 0.2298828 -0.12896526
-0.24464843 0.23292968 -0.12897758
-0.24323241 0.23443359 -0.12898377
-0.24179687 0.23593749 -0.12899002
-0.24035156 0.23742187 -0.12899636
-0.23890625 0.23890625 -0.12900265
-0.23597656 0.24185546 -0.12901546
-0.23301758 0.24474609 -0.12902842
-0.23001952 0.24761719 -0.12904155
-0.22850585 0.24902344 -0.1290482
-0.22699217 0.2504492 -0.12905478
-0.22545898 0.25183594 -0.12906155
-0.22082031 0.25599608 -0.12908195
-0.21924804 0.2573633 -0.12908877
-0.21611327 0.26003906 -0.12910259
-0.21452148 0.26136717 -0.1291096
-0.21292968 0.2626953 -0.1291166
-0.20970702 0.2653125 -0.12913074
-0.20808594 0.26662108 -0.12913792
-0.20646484 0.26791015 -0.12914504
-0.20317382 0.27044922 -0.12915951
-0.20152344 0.27169922 -0.1291668
-0.19819336 0.27417967 -0.12918147
-0.19652343 0.2754297 -0.12918884
-0.19484374 0.27664062 -0.12919624
-0.19315429 0.27785155 -0.12920365
-0.18111327 0.28599608 -0.12925681
-0.179375 0.2871289 -0.12926449
-0.17760742 0.2882422 -0.12927227
-0.1758496 0.28933594 -0.12928009
-0.17408203 0.29042968 -0.12928787
-0.17231445 0.29152343 -0.12929572
-0.17052734 0.29257813 -0.12930359
-0.16514648 0.29572266 -0.12932743
-0.15970702 0.29874998 -0.12935154
-0.15420899 0.30169922 -0.12937587
-0.15235351 0.30265623 -0.12938407
-0.14116211 0.30818358 -0.12943374
-0.1392871 0.30908203 -0.12944207
-0.13549805 0.31080076 -0.12945892
-0.13359375 0.31164062 -0.12946735
-0.12785156 0.31410155 -0.12949283
-0.118203126 0.31798828 -0.12953578
-0.11626953 0.31875 -0.1295444
-0.114306636 0.31947264 -0.12955311
-0.110400386 0.32089844 -0.1295705
-0.10646484 0.32224607 -0.12958805
-0.10449219 0.32292968 -0.12959686
-0.10053711 0.32421875 -0.12961444
-0.098554686 0.32486328 -0.12962334
-0.0965625 0.32548827 -0.12963215
-0.09457031 0.32609373 -0.12964104
-0.09257812 0.3266992 -0.12964992
-0.09057617 0.32726562 -0.1296589
-0.0865625 0.32839844 -0.12967677
-0.08455078 0.32896483 -0.12968574
-0.07849609 0.33052734 -0.12971279
-0.07647461 0.33101562 -0.12972184
-0.074443355 0.33152342 -0.12973087
-0.06833984 0.33289063 -0.12975815
-0.060166012 0.33457032 -0.12979473
-0.058125 0.33496094 -0.1298038
-0.05401367 0.33568358 -0.12982227
-0.051953122 0.33603516 -0.12983142
-0.049902342 0.3363867 -0.12984066
-0.04783203 0.33669922 -0.1298499
-0.04576172 0.33701172 -0.12985912
-0.043701172 0.33730468 -0.12986839
-0.041630857 0.33757812 -0.12987766
-0.039570313 0.33787107 -0.12988693
-0.03126953 0.33884764 -0.12992409
-0.027109375 0.3392383 -0.12994274
-0.022968749 0.33958983 -0.12996139
-0.018798828 0.33990234 -0.12998009
-0.012529297 0.34027344 -0.1300082
-0.010449219 0.34035155 -0.1300175
-0.00836914 0.3404297 -0.13002689
-0.0062792967 0.3405078 -0.13003628
-0.004189453 0.3405664 -0.1300457
0.002080078 0.34066406 -0.13007385
0.012548828 0.3405664 -0.13012092
0.014638672 0.34048828 -0.1301303
0.016728515 0.3404297 -0.13013972
0.02508789 0.34001952 -0.13017735
0.027167968 0.3398828 -0.13018669
0.029257812 0.33972657 -0.13019611
0.03133789 0.3395703 -0.13020553
0.033427734 0.339375 -0.13021491
0.035517577 0.33919922 -0.1302243
0.037597656 0.3390039 -0.13023369
0.0396875 0.33878905 -0.13024311
0.04175781 0.33855468 -0.13025245
0.04383789 0.33833984 -0.13026184
0.04591797 0.33808592 -0.13027118
0.047998045 0.33781248 -0.1302806
0.056289062 0.33662108 -0.13031799
0.062490232 0.33560547 -0.13034599
0.06455078 0.3352539 -0.1303553
0.066621095 0.33486328 -0.13036461
0.068671875 0.33447266 -0.13037391
0.072773434 0.33367187 -0.13039249
0.07891601 0.3323242 -0.13042027
0.08096679 0.33185548 -0.13042954
0.08300781 0.33138672 -0.13043876
0.085039064 0.33089843 -0.13044795
0.08911133 0.32986328 -0.13046639
0.09114257 0.32933593 -0.13047554
0.093164064 0.32880858 -0.13048477
0.09720703 0.32765624 -0.13050304
0.099228516 0.32708985 -0.1305122
0.10124023 0.3265039 -0.13052128
0.10325195 0.32589844 -0.13053043
0.105253905 0.32527342 -0.13053948
0.10724609 0.32464844 -0.13054858
0.11124023 0.32335937 -0.13056667
0.11521484 0.3220117 -0.13058472
0.12508789 0.3184375 -0.13062954
0.12705077 0.31767577 -0.13063839
0.13095702 0.31615233 -0.13065612
0.13290039 0.31535155 -0.13066497
0.13677734 0.31375 -0.13068263
0.13871093 0.31291014 -0.13069141
0.14064454 0.3120703 -0.13070019
0.14256835 0.31123045 -0.13070896
0.14448242 0.3103711 -0.1307177
0.14638671 0.30949217 -0.13072632
0.15398437 0.3058789 -0.13076095
0.15586914 0.30496094 -0.13076949
0.15774414 0.30402344 -0.130778
0.15961914 0.3030664 -0.13078658
0.16149414 0.30210936 -0.13079514
0.16705078 0.29912108 -0.13082047
0.16888672 0.298125 -0.13082889
0.17072265 0.29710937 -0.13083725
0.17255859 0.2960547 -0.13084568
0.17438476 0.29501954 -0.13085395
0.17620116 0.29396483 -0.13086227
0.17801757 0.2928906 -0.13087058
0.18162109 0.29072264 -0.13088703
0.1834082 0.2896289 -0.1308952
0.18519531 0.28851563 -0.13090335
0.18697265 0.2873828 -0.13091148
0.19226561 0.2839453 -0.13093574
0.19576171 0.28160155 -0.13095169
0.19922851 0.27921873 -0.1309676
0.20436522 0.27554688 -0.13099113
0.20776367 0.27304688 -0.13100666
0.20945312 0.27179688 -0.1310144
0.21111327 0.2705078 -0.13102207
0.21279296 0.26923826 -0.13102974
0.2177539 0.265332 -0.13105251
0.21938476 0.2640039 -0.13105999
0.22100586 0.26265624 -0.1310675
0.22262695 0.26132813 -0.1310749
0.22424804 0.25996092 -0.13108239
0.2290332 0.25583982 -0.1311044
0.23217773 0.25302735 -0.13111888
0.23374023 0.2516211 -0.13112606
0.23990233 0.24585937 -0.13115443
0.24291992 0.24291015 -0.1311684
0.2459082 0.2399414 -0.13118218
0.24739258 0.23843749 -0.13118903
0.24886718 0.23693359 -0.13119578
0.25177735 0.23388672 -0.1312093
0.2546582 0.23080078 -0.1312226
0.25607422 0.22923827 -0.13122916
0.26029298 0.22453125 -0.1312487
0.26167968 0.22292969 -0.13125515
0.26305664 0.22132812 -0.13126156
0.26441404 0.21972656 -0.13126782
0.26577148 0.21810547 -0.13127415
0.26711914 0.21648437 -0.13128036
0.26978514 0.21322265 -0.1312928
0.27109376 0.2115625 -0.13129887
0.27239257 0.20992187 -0.13130496
0.27498046 0.20656249 -0.13131694
0.27751952 0.20320313 -0.13132878
0.27876952 0.2015039 -0.1313346
0.28125 0.19808593 -0.13134617
0.2836914 0.19462891 -0.13135757
0.28608397 0.19115233 -0.13136871
0.28958008 0.18585937 -0.13138507
0.29072264 0.18410155 -0.13139045
0.29186523 0.18232422 -0.13139576
0.29298827 0.18052734 -0.13140106
0.2941113 0.17873046 -0.13140632
0.29844725 0.17148437 -0.13142669
0.2995117 0.16966796 -0.13143165
0.30055663 0.16783203 -0.13143662
0.30561522 0.15855469 -0.13146046
0.3085156 0.15292968 -0.13147418
0.30946288 0.15103516 -0.13147865
0.31039062 0.14912109 -0.13148308
0.31131834 0.14722656 -0.13148746
0.31400388 0.1415039 -0.1315002
0.3148828 0.13955078 -0.1315044
0.31573242 0.13763672 -0.13150848
0.31742185 0.13374999 -0.13151649
0.31905273 0.12986328 -0.13152438
0.31986326 0.12791015 -0.13152824
0.32218748 0.121992186 -0.13153937
0.32293946 0.12003906 -0.13154297
0.32368162 0.11804687 -0.13154656
0.3258203 0.11208984 -0.13155693
0.32651368 0.110078126 -0.13156025
0.32785156 0.106074214 -0.13156673
0.32850584 0.10404297 -0.13156997
0.3297754 0.10001953 -0.13157615
0.33328125 0.0878125 -0.13159336
0.3348535 0.081699215 -0.13160121
0.33536133 0.07962891 -0.13160373
0.3358496 0.07755859 -0.13160618
0.33677733 0.0734375 -0.13161083
0.33723632 0.07136719 -0.1316132
0.337666 0.069296874 -0.13161537
0.33850586 0.06515625 -0.1316196
0.33890623 0.063085936 -0.13162166
0.33966798 0.05892578 -0.1316256
0.3400293 0.056835935 -0.13162743
0.34037107 0.054765623 -0.13162929
0.34070313 0.05267578 -0.131631
0.34102538 0.05060547 -0.13163269
0.34163085 0.04640625 -0.13163593
0.34191406 0.044296876 -0.13163742
0.3421875 0.04220703 -0.13163894
0.3424414 0.040097654 -0.13164036
0.34268555 0.03800781 -0.13164166
0.34291992 0.035898436 -0.13164298
0.3433301 0.031699218 -0.13164535
0.34352538 0.029589843 -0.1316465
0.34370115 0.027460936 -0.13164753
0.34386718 0.025351562 -0.13164853
0.34416014 0.021132812 -0.13165034
0.3442871 0.019023437 -0.1316512
0.34450194 0.014804687 -0.13165264
0.34458008 0.0126953125 -0.1316533
0.3446582 0.010585938 -0.13165386
0.3447168 0.008457031 -0.1316544
0.34478515 0.004238281 -0.1316552
0.34481445 -0.0 -0.13165589
0.34481445 -0.0021093749 -0.13165607
0.34479493 -0.0042187497 -0.1316563
0.3447656 -0.0063476562 -0.13165641
0.3447168 -0.008457031 -0.13165645
0.3446582 -0.010585938 -0.13165641
0.34458983 -0.0126953125 -0.13165638
0.34441406 -0.016933594 -0.13165607
0.34429687 -0.019042969 -0.13165584
0.3441797 -0.021152344 -0.13165554
0.34404296 -0.023261718 -0.13165516
0.3437207 -0.027480468 -0.13165428
0.3435449 -0.029609375 -0.13165371
0.34315428 -0.033808593 -0.13165249
0.34270507 -0.03800781 -0.13165095
0.3422168 -0.04222656 -0.13164924
0.34194335 -0.044316404 -0.13164829
0.34166014 -0.04640625 -0.13164733
0.3413672 -0.048496094 -0.13164623
0.34105468 -0.050585937 -0.13164508
0.34041014 -0.054785155 -0.13164264
0.34006834 -0.056855466 -0.13164139
0.33970702 -0.05894531 -0.13164005
0.33933592 -0.061035156 -0.1316386
0.33895507 -0.063125 -0.13163711
0.3385449 -0.065195315 -0.13163559
0.33813477 -0.06728516 -0.13163398
0.3363672 -0.075546876 -0.13162701
0.3343945 -0.08376953 -0.13161919
0.3327832 -0.08992187 -0.13161258
0.33220702 -0.09195312 -0.13161029
0.33164063 -0.09398437 -0.13160801
0.32983398 -0.10007812 -0.1316006
0.32920897 -0.102089845 -0.13159806
0.32856444 -0.10412109 -0.13159537
0.32657227 -0.11011718 -0.13158722
0.3237402 -0.11810546 -0.13157539
0.3230078 -0.12009765 -0.13157234
0.3215039 -0.124042965 -0.13156605
0.3191406 -0.12990235 -0.13155617
0.3175 -0.13382812 -0.13154925
0.31581053 -0.13769531 -0.13154216
0.3140918 -0.14156249 -0.13153484
0.31230468 -0.14539061 -0.13152729
0.31140625 -0.14730468 -0.13152343
0.3104785 -0.14921875 -0.13151954
0.30765623 -0.1548828 -0.13150753
0.30271482 -0.16419922 -0.13148643
0.2974707 -0.1733789 -0.131464
0.29420897 -0.17880858 -0.13145
0.29308593 -0.18060547 -0.13144515
0.29197264 -0.18240234 -0.13144039
0.29083008 -0.18416016 -0.13143547
0.28968748 -0.1859375 -0.13143055
0.28736326 -0.18947265 -0.13142043
0.28618163 -0.19123046 -0.13141537
0.28499022 -0.19296874 -0.13141026
0.28378907 -0.19470702 -0.13140507
0.2825781 -0.19642578 -0.13139984
0.28134766 -0.19816406 -0.13139458
0.28012696 -0.19986327 -0.1313892
0.27887696 -0.20158203 -0.13138382
0.2776172 -0.20328124 -0.1313784
0.27379882 -0.2083203 -0.13136181
0.27250975 -0.20998046 -0.1313562
0.2698828 -0.21330078 -0.1313448
0.26588866 -0.21820313 -0.13132739
0.26453125 -0.21982421 -0.13132149
0.26178712 -0.22304687 -0.13130954
0.26041016 -0.2246289 -0.13130352
0.25901365 -0.22621094 -0.13129745
0.25760743 -0.22779296 -0.13129131
0.2561914 -0.22935547 -0.13128518
0.25476563 -0.23091796 -0.13127892
0.25333008 -0.23246093 -0.13127266
0.24750976 -0.23855469 -0.13124721
0.24602538 -0.24005859 -0.13124073
0.2430371 -0.24302734 -0.13122764
0.24152343 -0.24451171 -0.13122101
0.23848632 -0.24742188 -0.13120773
0.23695312 -0.24886718 -0.13120101
0.23072265 -0.2545703 -0.1311737
0.22754882 -0.25734374 -0.13115978
0.22435546 -0.26009765 -0.13114575
0.22112304 -0.26279297 -0.13113154
0.21949218 -0.2641406 -0.13112435
0.21456054 -0.26808593 -0.13110264
0.20955078 -0.2719336 -0.13108058
0.20618163 -0.27447265 -0.13106574
0.20276366 -0.27693358 -0.13105075
0.20105468 -0.27816406 -0.13104317
0.19932617 -0.27939454 -0.13103557
0.19586913 -0.28177735 -0.13102028
0.19060546 -0.28529295 -0.13099705
0.18707031 -0.2875586 -0.13098145
0.18171875 -0.29091796 -0.1309578
0.1799121 -0.2919922 -0.13094983
0.17628905 -0.29416016 -0.13093384
0.17448242 -0.29521483 -0.13092582
0.17265625 -0.29625 -0.13091765
0.17083007 -0.2973047 -0.13090958
0.16899414 -0.2983203 -0.13090144
0.15784179 -0.30421874 -0.13085201
0.15595703 -0.30515623 -0.1308437
0.1540625 -0.30609375 -0.1308353
0.1521875 -0.30703124 -0.1308269
0.14837891 -0.3088086 -0.13081005
0.14264648 -0.31142578 -0.13078457
0.14072265 -0.31228516 -0.13077606
0.13492188 -0.31476563 -0.13075027
0.13297851 -0.3155664 -0.13074161
0.13103515 -0.31634766 -0.130733
0.12711914 -0.3178906 -0.13071556
0.12515625 -0.3186328 -0.13070686
0.12319335 -0.31939453 -0.13069813
0.1212207 -0.32011718 -0.13068935
0.11924805 -0.3208203 -0.13068055
0.1093164 -0.32421875 -0.13063629
0.08916015 -0.33009765 -0.13054642
0.08712891 -0.330625 -0.13053733
0.07693359 -0.3330078 -0.13049175
0.07488281 -0.33345702 -0.1304826
0.072822265 -0.3338867 -0.1304734
0.070771486 -0.33429688 -0.13046417
0.06871094 -0.33470702 -0.13045502
0.06666016 -0.33509764 -0.13044582
0.06458984 -0.33546874 -0.13043655
0.062529296 -0.33583984 -0.13042736
0.058398437 -0.33654296 -0.13040882
0.05425781 -0.3371875 -0.13039032
0.052177735 -0.33748046 -0.130381
0.050097656 -0.33777344 -0.1303717
0.03970703 -0.33904296 -0.13032517
0.037617188 -0.3392383 -0.13031581
0.03553711 -0.33945313 -0.13030651
0.03345703 -0.3396289 -0.13029708
0.0271875 -0.3401172 -0.13026905
0.025097655 -0.3402539 -0.13025966
0.018828124 -0.34058592 -0.13023147
0.01673828 -0.34068358 -0.13022205
0.0146484375 -0.34074217 -0.13021271
0.010458984 -0.34083983 -0.13019386
0.00836914 -0.3408789 -0.13018452
0.0020898436 -0.34089842 -0.13015628
-0.0020898436 -0.34085935 -0.13013747
-0.004189453 -0.34080076 -0.1301281
-0.0062792967 -0.34074217 -0.13011867
-0.012548828 -0.3405078 -0.13009045
-0.016728515 -0.34027344 -0.1300716
-0.020878905 -0.34 -0.13005286
-0.022968749 -0.33984375 -0.13004345
-0.027128905 -0.33947265 -0.13002472
-0.029208984 -0.33927733 -0.13001537
-0.031289063 -0.33908203 -0.13000599
-0.03336914 -0.33884764 -0.12999664
-0.035439454 -0.33861327 -0.12998725
-0.03751953 -0.33835936 -0.12997787
-0.041660156 -0.33783203 -0.12995918
-0.04580078 -0.3372461 -0.1299405
-0.047871094 -0.33693358 -0.12993114
-0.051992185 -0.33626953 -0.12991257
-0.058154296 -0.33517578 -0.12988472
-0.060205076 -0.33480468 -0.12987548
-0.06225586 -0.3343945 -0.12986618
-0.06838867 -0.333125 -0.12983848
-0.07449219 -0.33173826 -0.12981087
-0.07652344 -0.33124998 -0.12980168
-0.08057617 -0.3302539 -0.12978336
-0.08258789 -0.32970703 -0.1297742
-0.08862305 -0.3280664 -0.12974693
-0.09462891 -0.32630858 -0.12971969
-0.09861328 -0.32507813 -0.12970161
-0.1005957 -0.32445312 -0.12969264
-0.1065332 -0.32248047 -0.12966575
-0.10850586 -0.32179686 -0.12965675
-0.12021484 -0.31746092 -0.12960353
-0.12214843 -0.3166797 -0.12959476
-0.13176757 -0.3126953 -0.12955104
-0.13367186 -0.31183594 -0.12954238
-0.13557617 -0.3110156 -0.12953372
-0.1374707 -0.31015626 -0.12952507
-0.14500976 -0.30660155 -0.12949081
-0.146875 -0.30566406 -0.1294823
-0.1561328 -0.3009375 -0.12944011
-0.15795898 -0.2999414 -0.1294318
-0.15978515 -0.2989453 -0.12942344
-0.16161132 -0.29796875 -0.12941512
-0.16342773 -0.2969336 -0.12940678
-0.17417969 -0.29060546 -0.12935768
-0.18121094 -0.28617188 -0.12932555
-0.18295898 -0.28503907 -0.12931755
-0.18469726 -0.2838867 -0.12930965
-0.18813476 -0.28158203 -0.12929386
-0.1898535 -0.28039062 -0.12928604
-0.19325195 -0.2780078 -0.12927048
-0.19662109 -0.27558592 -0.12925498
-0.19997069 -0.273125 -0.12923965
-0.20163086 -0.271875 -0.12923206
-0.20656249 -0.2680664 -0.12920944
-0.20819336 -0.26677734 -0.12920192
-0.20981444 -0.26548827 -0.12919448
-0.21142578 -0.26417968 -0.12918705
-0.21936522 -0.25748047 -0.12915054
-0.22248046 -0.25474608 -0.12913623
-0.22403319 -0.25335938 -0.12912907
-0.2255664 -0.25197265 -0.12912205
-0.2270996 -0.2505664 -0.12911491
-0.22862305 -0.24916016 -0.12910789
-0.233125 -0.2448828 -0.12908718
-0.23609374 -0.24197266 -0.12907344
-0.23755859 -0.24050781 -0.12906674
-0.24475585 -0.23304687 -0.12903346
-0.2489746 -0.22845702 -0.12901394
-0.25035155 -0.22691406 -0.12900756
-0.2530957 -0.22378905 -0.12899482
-0.25444335 -0.22222656 -0.12898853
-0.25580078 -0.22066405 -0.1289823
-0.25845703 -0.21748047 -0.12896995
-0.25977537 -0.2158789 -0.12896381
-0.261084 -0.21427734 -0.12895775
-0.26367188 -0.21101563 -0.1289457
-0.2687207 -0.20445313 -0.12892222
-0.26995116 -0.2028125 -0.12891647
-0.2711914 -0.2011328 -0.12891075
-0.27240235 -0.19945312 -0.12890506
-0.27717772 -0.19267578 -0.12888283
-0.27948242 -0.18923828 -0.12887199
-0.28063476 -0.18751952 -0.12886666
-0.28176758 -0.18578124 -0.12886131
-0.28289062 -0.18402344 -0.12885608
-0.2851074 -0.18054686 -0.1288457
-0.28620118 -0.17878906 -0.12884055
-0.28728515 -0.17701171 -0.12883548
-0.2894043 -0.17345703 -0.12882553
-0.2904492 -0.17167969 -0.12882069
-0.29148436 -0.1698828 -0.12881576
-0.2935254 -0.1663086 -0.12880611
-0.29453126 -0.16449219 -0.12880142
-0.29651368 -0.16085938 -0.12879208
-0.29748046 -0.15902343 -0.12878753
-0.2984375 -0.15718749 -0.12878296
-0.30032226 -0.15349609 -0.12877403
-0.30124998 -0.15166016 -0.12876968
-0.3030664 -0.14792968 -0.12876105
-0.30396482 -0.14607422 -0.12875679
-0.30484375 -0.14417969 -0.12875259
-0.30571288 -0.14232421 -0.12874848
-0.30656248 -0.14042969 -0.1287444
-0.3074121 -0.13853516 -0.12874039
-0.30825195 -0.13666016 -0.12873638
-0.30907226 -0.13474609 -0.12873241
-0.30987304 -0.13285156 -0.1287286
-0.3122363 -0.12710938 -0.12871727
-0.3130078 -0.12519531 -0.12871356
-0.31375974 -0.12326171 -0.12870994
-0.31450194 -0.12132812 -0.1287064
-0.31523436 -0.119394526 -0.12870285
-0.31594726 -0.11746094 -0.12869938
-0.3166504 -0.11550781 -0.12869602
-0.3180371 -0.11160156 -0.1286893
-0.31870118 -0.109667964 -0.12868606
-0.32000977 -0.10572265 -0.12867977
-0.32248047 -0.09783203 -0.12866768
-0.32475585 -0.08988281 -0.12865649
-0.32529297 -0.087890625 -0.12865382
-0.32632813 -0.08388672 -0.12864868
-0.32780272 -0.07787109 -0.12864132
-0.3287207 -0.07382812 -0.1286367
-0.32916015 -0.07179687 -0.12863453
-0.32958984 -0.069785155 -0.12863235
-0.33000976 -0.0677539 -0.12863022
-0.33080077 -0.06369141 -0.12862614
-0.3322461 -0.055546872 -0.12861866
-0.3332031 -0.049433593 -0.12861362
-0.3334961 -0.047382813 -0.12861206
-0.33429688 -0.041249998 -0.12860768
-0.33454102 -0.039179686 -0.12860638
-0.33520508 -0.03300781 -0.12860267
-0.33540037 -0.03095703 -0.12860149
-0.3355664 -0.028886719 -0.1286005
-0.33589843 -0.024785155 -0.12859851
-0.33603516 -0.022734374 -0.12859768
-0.33617187 -0.020664062 -0.12859684
-0.3363965 -0.016523438 -0.12859531
-0.33648437 -0.014472656 -0.12859462
-0.33656248 -0.012402344 -0.12859401
-0.33664063 -0.010332031 -0.12859344
-0.3367383 -0.006210937 -0.12859252
-0.3367871 -0.0020703124 -0.1285918
-0.31969726 -0.0 -0.12866837
-0.3196875 0.001953125 -0.1286682
-0.3195996 0.007851562 -0.12866783
-0.31955078 0.009804687 -0.12866783
-0.3194043 0.013730468 -0.12866798
-0.3193164 0.015683593 -0.12866817
-0.3190918 0.019589843 -0.12866871
-0.31883788 0.023535157 -0.1286694
-0.31852537 0.027441405 -0.1286703
-0.3183496 0.029375 -0.12867089
-0.31680664 0.04302734 -0.12867618
-0.31625977 0.04689453 -0.12867817
-0.31597656 0.048847657 -0.1286792
-0.31566405 0.05078125 -0.12868033
-0.3150293 0.054648437 -0.12868275
-0.3146875 0.05658203 -0.128684
-0.3139746 0.060429685 -0.12868679
-0.31321287 0.06429687 -0.12868972
-0.31282225 0.06621093 -0.12869126
-0.3124121 0.068125 -0.1286929
-0.31199217 0.07005859 -0.12869449
-0.31112304 0.07386719 -0.128698
-0.30873045 0.0833789 -0.12870762
-0.30822265 0.085292965 -0.12870967
-0.30770507 0.08716796 -0.12871177
-0.3071582 0.0890625 -0.12871398
-0.30662107 0.09095703 -0.1287162
-0.30605468 0.09283203 -0.12871848
-0.3049121 0.09658203 -0.12872317
-0.30371094 0.1003125 -0.12872818
-0.3030957 0.102167964 -0.1287307
-0.2984668 0.11513671 -0.12874992
-0.29777342 0.11695312 -0.12875286
-0.29705077 0.11878906 -0.12875584
-0.29632813 0.12060547 -0.12875889
-0.29558593 0.122421876 -0.12876198
-0.29330078 0.12785156 -0.12877163
-0.2917285 0.1314453 -0.12877826
-0.29009765 0.13503906 -0.12878513
-0.28759766 0.14035156 -0.12879577
-0.2867285 0.1421289 -0.12879944
-0.28586912 0.14388672 -0.1288031
-0.28498048 0.145625 -0.12880687
-0.2840918 0.14738281 -0.12881061
-0.2813574 0.15261719 -0.12882225
-0.27560547 0.16289063 -0.12884688
-0.27460936 0.16458984 -0.12885113
-0.27359375 0.16626953 -0.12885551
-0.2725879 0.16794921 -0.12885986
-0.27051756 0.17128906 -0.12886871
-0.26841795 0.1746289 -0.12887779
-0.26297852 0.1828125 -0.12890124
-0.26186523 0.1844336 -0.12890601
-0.2607324 0.18601562 -0.1289109
-0.2595996 0.18763672 -0.12891586
-0.2561328 0.19242187 -0.12893085
-0.2537793 0.19554687 -0.12894107
-0.2525781 0.19710937 -0.12894626
-0.24646483 0.20480469 -0.12897281
-0.2439453 0.20783202 -0.12898377
-0.24011718 0.21232422 -0.12900047
-0.23881835 0.2138086 -0.12900612
-0.23620117 0.21673828 -0.12901752
-0.23487304 0.21820313 -0.12902331
-0.23353516 0.2196289 -0.12902912
-0.23219725 0.22105469 -0.129035
-0.22673827 0.22673827 -0.1290588
-0.22115234 0.23228516 -0.12908332
-0.216875 0.23634765 -0.12910205
-0.21398437 0.23902343 -0.12911472
-0.21252929 0.24033202 -0.12912112
-0.21106444 0.24164061 -0.12912758
-0.20359375 0.2480664 -0.12916034
-0.20055664 0.25058594 -0.1291737
-0.19902344 0.25183594 -0.12918042
-0.19748047 0.2530664 -0.12918724
-0.19438477 0.25548828 -0.12920086
-0.19125976 0.2578711 -0.12921463
-0.18967773 0.2590625 -0.12922157
-0.18168946 0.2648047 -0.12925678
-0.18007812 0.2659375 -0.12926391
-0.17844726 0.26705077 -0.12927109
-0.17353515 0.27033204 -0.12929279
-0.171875 0.27142578 -0.12930012
-0.16520508 0.27560547 -0.1293296
-0.16351563 0.27662107 -0.12933704
-0.16182616 0.27765626 -0.12934452
-0.15842773 0.27964842 -0.12935954
-0.15670899 0.280625 -0.12936714
-0.155 0.28160155 -0.12937477
-0.14981446 0.28445312 -0.12939773
-0.14807616 0.28539062 -0.1294054
-0.1445703 0.28722656 -0.12942097
-0.14282227 0.288125 -0.12942871
-0.14106445 0.2890039 -0.1294365
-0.13929687 0.2898828 -0.12944432
-0.13574219 0.29160157 -0.1294601
-0.13395508 0.29246092 -0.129468
-0.13216797 0.29328126 -0.12947597
-0.13038085 0.2941211 -0.12948391
-0.12496094 0.2965039 -0.12950797
-0.11401367 0.30103514 -0.12955669
-0.11216797 0.30173826 -0.12956493
-0.10847656 0.3031445 -0.12958133
-0.106621094 0.3038086 -0.12958962
-0.102890626 0.3051367 -0.12960617
-0.10102539 0.30578125 -0.12961449
-0.09915039 0.30640623 -0.12962283
-0.095400386 0.30765623 -0.12963958
-0.09162109 0.30884764 -0.1296564
-0.08973633 0.30941406 -0.1296648
-0.08594726 0.31052732 -0.12968169
-0.07831054 0.3126367 -0.12971577
-0.07255859 0.31408203 -0.12974143
-0.07063477 0.31453124 -0.1297501
-0.06870117 0.31498045 -0.12975869
-0.06677734 0.3154297 -0.1297673
-0.06484375 0.31583983 -0.12977596
-0.062910154 0.31625 -0.12978458
-0.05514648 0.31779295 -0.12981929
-0.05125 0.31849608 -0.12983672
-0.04734375 0.3191406 -0.1298542
-0.043417968 0.31974608 -0.12987174
-0.041464843 0.3200195 -0.12988052
-0.039501954 0.32029295 -0.12988934
-0.03753906 0.32054687 -0.1298981
-0.035576172 0.32078123 -0.12990692
-0.033603515 0.32103515 -0.12991577
-0.03163086 0.32125 -0.12992458
-0.027695311 0.32166016 -0.12994224
-0.023759766 0.32203123 -0.12995991
-0.021787109 0.32218748 -0.12996879
-0.015849609 0.32259765 -0.12999538
-0.011894531 0.3228125 -0.13001315
-0.009912109 0.3228906 -0.13002208
-0.0039648437 0.32308593 -0.13004875
-0.0019824218 0.32314453 -0.13005768
0.0019824218 0.32316405 -0.13007548
0.0059472653 0.32316405 -0.1300933
0.007929687 0.32316405 -0.13010226
0.019833984 0.32277343 -0.13015579
0.023798827 0.32255858 -0.13017368
0.025771484 0.32242188 -0.13018253
0.027753906 0.32226562 -0.13019149
0.029736327 0.3221289 -0.13020039
0.033691406 0.32177734 -0.1302182
0.037646484 0.32138672 -0.13023604
0.03961914 0.32115233 -0.13024494
0.043564454 0.32070312 -0.13026272
0.045527343 0.32046875 -0.13027157
0.04946289 0.31990233 -0.13028938
0.05142578 0.3196289 -0.13029823
0.053398438 0.31933594 -0.13030712
0.061240233 0.31798828 -0.13034248
0.06514648 0.31726563 -0.13036011
0.07097656 0.31607422 -0.1303865
0.07291992 0.31566405 -0.13039531
0.07486328 0.31523436 -0.13040408
0.07680664 0.31478515 -0.13041286
0.08259766 0.3133789 -0.13043907
0.08452148 0.31289062 -0.13044785
0.08644531 0.31238282 -0.1304565
0.08836914 0.311875 -0.13046524
0.09029297 0.3113281 -0.13047394
0.09411132 0.3102539 -0.13049121
0.10173828 0.3079297 -0.13052578
0.10550781 0.30669922 -0.1305429
0.10740234 0.30605468 -0.13055153
0.1111621 0.3047656 -0.13056858
0.11303711 0.30410156 -0.13057709
0.118642576 0.30203125 -0.13060252
0.12235352 0.30058593 -0.13061939
0.12420898 0.29984373 -0.13062778
0.12972656 0.29757813 -0.13065292
0.13157226 0.29679686 -0.13066128
0.13339843 0.2959961 -0.13066955
0.13521484 0.29517576 -0.13067783
0.13703124 0.294375 -0.1306861
0.14246093 0.29183593 -0.1307108
0.14425781 0.29099607 -0.13071895
0.14783202 0.28923827 -0.13073525
0.14961913 0.28833982 -0.1307434
0.15138671 0.28742188 -0.13075149
0.15492187 0.28558594 -0.13076758
0.16540039 0.27978516 -0.13081539
0.16882811 0.27777344 -0.13083106
0.1705371 0.2767578 -0.13083889
0.17394531 0.27466795 -0.13085449
0.17732422 0.27253905 -0.1308699
0.17899413 0.27146482 -0.13087757
0.18234375 0.26929685 -0.13089286
0.18399413 0.2681836 -0.13090046
0.1856543 0.26705077 -0.13090801
0.19057617 0.26365232 -0.13093051
0.19703124 0.25896484 -0.13096015
0.20021483 0.2565625 -0.13097477
0.20336914 0.25410154 -0.13098922
0.20958984 0.24908203 -0.13101779
0.21416992 0.24523437 -0.13103889
0.22017577 0.23996094 -0.13106647
0.22166015 0.23861328 -0.13107334
0.22313476 0.23726562 -0.13108014
0.2245996 0.23589844 -0.13108684
0.22892578 0.2317578 -0.13110684
0.23036133 0.23037109 -0.13111342
0.23177734 0.22896484 -0.13112
0.23319335 0.22753906 -0.13112651
0.23598632 0.22466797 -0.13113941
0.23737304 0.22322266 -0.13114585
0.23875 0.22177733 -0.13115223
0.24011718 0.22031249 -0.13115856
0.24417968 0.21589844 -0.13117729
0.2455078 0.21441406 -0.13118339
0.24682617 0.21291015 -0.13118957
0.24814452 0.21140625 -0.13119571
0.2520215 0.2068164 -0.13121365
0.2545703 0.20373046 -0.13122547
0.26316404 0.19267578 -0.13126545
0.2643457 0.1910742 -0.13127097
0.26551756 0.18945312 -0.13127647
0.2678418 0.1861914 -0.13128734
0.27125975 0.18123047 -0.13130325
0.27237305 0.17958984 -0.13130851
0.27348632 0.17791015 -0.1313137
0.27566406 0.17455077 -0.13132392
0.27674803 0.17287108 -0.13132896
0.27781248 0.17117187 -0.13133396
0.2799121 0.1677539 -0.1313438
0.28094727 0.16605468 -0.13134864
0.28298828 0.16259766 -0.13135825
0.28398436 0.1608789 -0.13136294
0.28498048 0.15914062 -0.13136764
0.28595704 0.15738282 -0.13137226
0.2869336 0.155625 -0.13137683
0.2878906 0.15388672 -0.13138138
0.28884766 0.15210937 -0.13138583
0.2907129 0.14857422 -0.13139465
0.2916211 0.14677735 -0.131399
0.29430664 0.14140625 -0.1314117
0.29603514 0.13779296 -0.1314199
0.29688475 0.13597655 -0.13142395
0.2977246 0.13414063 -0.13142791
0.2985449 0.13232422 -0.13143188
0.29936522 0.13048828 -0.13143574
0.300166 0.12865233 -0.13143958
0.30095702 0.1268164 -0.13144337
0.30174804 0.124980465 -0.1314471
0.30327147 0.12126953 -0.13145442
0.30401367 0.11941406 -0.13145797
0.30546874 0.11568359 -0.13146499
0.30619138 0.113808595 -0.1314685
0.30825195 0.10814453 -0.13147838
0.3095703 0.10435547 -0.13148479
0.3120703 0.09675781 -0.13149697
0.312666 0.09482422 -0.1314999
0.31325194 0.092910156 -0.13150272
0.31381837 0.090996094 -0.13150555
0.31437498 0.0890625 -0.13150825
0.31492186 0.087148435 -0.13151096
0.31546873 0.08519531 -0.13151363
0.31749022 0.0774414 -0.1315236
0.31887695 0.07158203 -0.13153061
0.31930664 0.0696289 -0.13153282
0.31973633 0.06767578 -0.13153492
0.32055664 0.06373047 -0.13153908
0.32093748 0.061777342 -0.13154106
0.322041 0.055859372 -0.13154666
0.3223828 0.053906247 -0.1315485
0.32271484 0.051933594 -0.13155025
0.32333985 0.047949217 -0.13155353
0.32362303 0.04597656 -0.13155507
0.3241699 0.04201172 -0.13155793
0.32490233 0.036035154 -0.13156196
0.32511717 0.034023438 -0.13156319
0.32569334 0.028046874 -0.13156654
0.32586914 0.026054688 -0.13156754
0.32652342 0.016035156 -0.1315717
0.3266211 0.014023437 -0.13157238
0.32668945 0.01203125 -0.13157292
0.32682616 0.008007812 -0.13157402
0.326875 0.006015625 -0.13157444
0.32689452 0.004003906 -0.13157482
0.32691404 0.0019921875 -0.13157512
0.32692382 -0.0 -0.13157544
0.32692382 -0.0020117187 -0.13157561
0.3269043 -0.0040234374 -0.13157581
0.32686523 -0.006035156 -0.13157593
0.32682616 -0.008027344 -0.13157596
0.32677734 -0.010039062 -0.13157596
0.32642576 -0.018046875 -0.13157535
0.32617188 -0.022050781 -0.13157478
0.3258789 -0.026054688 -0.13157387
0.3257129 -0.028066406 -0.13157333
0.32553712 -0.030058593 -0.1315728
0.3253418 -0.03205078 -0.13157219
0.32513672 -0.03404297 -0.1315715
0.32492188 -0.036035154 -0.13157077
0.32469726 -0.038046874 -0.13157001
0.32444334 -0.04001953 -0.13156913
0.32365233 -0.04597656 -0.13156627
0.32274413 -0.051933594 -0.13156292
0.3220703 -0.055898435 -0.1315604
0.32135743 -0.05984375 -0.13155761
0.32097656 -0.061796874 -0.13155617
0.32019532 -0.06574219 -0.13155311
0.31978515 -0.06769531 -0.1315515
0.31891602 -0.07162109 -0.13154808
0.31846678 -0.073574215 -0.13154629
0.31799805 -0.075546876 -0.13154441
0.3175293 -0.077480465 -0.13154258
0.31654295 -0.08136719 -0.13153861
0.31603515 -0.08330078 -0.13153656
0.31551757 -0.085234374 -0.13153446
0.3149707 -0.0871875 -0.13153225
0.31387696 -0.09103516 -0.13152778
0.3133008 -0.09294922 -0.13152541
0.3127246 -0.09486328 -0.13152309
0.31152344 -0.098691404 -0.13151817
0.31028318 -0.10251953 -0.13151301
0.30898437 -0.106308594 -0.13150764
0.30831054 -0.10820312 -0.13150482
0.3076367 -0.110097654 -0.13150203
0.30625 -0.11384765 -0.13149624
0.30554688 -0.115742184 -0.1314933
0.30408204 -0.11947265 -0.13148719
0.3018164 -0.12501954 -0.13147765
0.30103514 -0.126875 -0.13147438
0.2994336 -0.13054687 -0.13146763
0.29862303 -0.13240235 -0.13146423
0.29779297 -0.13421875 -0.13146073
0.2969629 -0.13603516 -0.13145718
0.29611328 -0.13785157 -0.13145359
0.294375 -0.14148436 -0.13144618
0.29170898 -0.14683594 -0.13143486
0.290791 -0.14863281 -0.13143097
0.2898535 -0.15041015 -0.131427
0.28892577 -0.15216796 -0.13142303
0.28604493 -0.1574414 -0.13141067
0.2830664 -0.16267578 -0.13139793
0.28103516 -0.16611327 -0.1313892
0.28 -0.16783203 -0.13138478
0.2779004 -0.17123047 -0.13137577
0.27683592 -0.17292969 -0.13137116
0.2735742 -0.17798828 -0.13135715
0.27134764 -0.18130858 -0.1313475
0.26908204 -0.18460937 -0.13133773
0.2667871 -0.18789062 -0.13132778
0.2632617 -0.1927539 -0.13131244
0.2608496 -0.1959375 -0.13130207
0.2596289 -0.19753906 -0.13129672
0.2571582 -0.20070311 -0.13128604
0.25592774 -0.20226562 -0.13128063
0.25466797 -0.20382813 -0.1312752
0.25339842 -0.20537108 -0.13126972
0.25211912 -0.20689453 -0.13126415
0.25083983 -0.2084375 -0.13125858
0.24823241 -0.21148437 -0.13124725
0.24692382 -0.21298827 -0.13124149
0.2455957 -0.21449219 -0.13123569
0.24426757 -0.21599609 -0.13122994
0.24157226 -0.21896484 -0.13121818
0.2374707 -0.22333984 -0.13120025
0.23608398 -0.22478515 -0.13119422
0.23468749 -0.22621094 -0.13118812
0.23329102 -0.22763671 -0.13118201
0.23187499 -0.2290625 -0.1311758
0.23045897 -0.23046875 -0.13116962
0.2246875 -0.23601562 -0.13114433
0.22174804 -0.23873046 -0.13113147
0.21878906 -0.24140625 -0.13111846
0.21426757 -0.24535155 -0.13109863
0.2127539 -0.24664062 -0.13109195
0.2112207 -0.24792968 -0.1310852
0.2096875 -0.24921875 -0.13107845
0.20346679 -0.25423828 -0.1310511
0.20188476 -0.25546876 -0.1310442
0.2003125 -0.25667968 -0.13103722
0.1987207 -0.2578906 -0.13103019
0.19711913 -0.25910157 -0.13102317
0.19390625 -0.26146483 -0.13100903
0.18739258 -0.26609373 -0.1309803
0.18574218 -0.26722655 -0.13097301
0.18409179 -0.26833984 -0.13096572
0.18243164 -0.2694336 -0.13095844
0.18076171 -0.27054688 -0.13095103
0.17572266 -0.27378905 -0.13092875
0.1740332 -0.27484375 -0.13092129
0.17063476 -0.27691406 -0.13090625
0.16892578 -0.2779492 -0.13089867
0.16719726 -0.27896485 -0.13089104
0.16375 -0.280957 -0.13087578
0.16201171 -0.28193358 -0.13086806
0.16026367 -0.2829297 -0.13086036
0.15852539 -0.2838867 -0.13085265
0.1496875 -0.28851563 -0.13081348
0.14611328 -0.2903125 -0.13079765
0.1425293 -0.29203126 -0.13078171
0.14073242 -0.2928906 -0.13077374
0.13710937 -0.29455078 -0.13075767
0.13345703 -0.29617187 -0.13074142
0.12795898 -0.29853514 -0.13071701
0.12612304 -0.29927734 -0.13070889
0.12426758 -0.30003905 -0.1307006
0.1168457 -0.30292967 -0.13066761
0.11123046 -0.30496094 -0.13064258
0.1074707 -0.30625 -0.1306258
0.10557617 -0.30691406 -0.13061737
0.101787105 -0.308125 -0.13060051
0.09989258 -0.30873045 -0.13059203
0.09798828 -0.3093164 -0.13058357
0.096083984 -0.30988282 -0.13057506
0.09416992 -0.31046873 -0.13056655
0.09225586 -0.3110156 -0.13055801
0.08458008 -0.31308594 -0.13052376
0.08264648 -0.31359375 -0.13051517
0.08071289 -0.3140625 -0.13050647
0.076855466 -0.315 -0.13048923
0.07491211 -0.3154492 -0.13048053
0.07296875 -0.31585938 -0.13047187
0.06518555 -0.31748047 -0.13043705
0.063222654 -0.31785154 -0.13042827
0.057353515 -0.31890625 -0.13040203
0.05146484 -0.31984374 -0.13037562
0.047529295 -0.32041016 -0.13035809
0.039638672 -0.32140625 -0.13032275
0.037666015 -0.32160157 -0.13031387
0.035683595 -0.32179686 -0.13030502
0.031728514 -0.32216796 -0.13028727
0.027773436 -0.3225 -0.13026951
0.017851561 -0.32308593 -0.13022499
0.01586914 -0.32316405 -0.1302161
0.013896484 -0.32322264 -0.13020717
0.011914062 -0.32330078 -0.13019828
0.007939453 -0.32335937 -0.13018043
0.0019824218 -0.32339844 -0.13015366
-9.765625e-06 -0.3233789 -0.13014476
-0.013876953 -0.32292968 -0.13008232
-0.01586914 -0.3228125 -0.1300734
-0.021787109 -0.32240233 -0.13004665
-0.023769531 -0.32222655 -0.13003772
-0.025742186 -0.3220703 -0.13002883
-0.027714843 -0.321875 -0.13001995
-0.029677734 -0.3216992 -0.1300111
-0.031660154 -0.32146484 -0.13000222
-0.033623047 -0.32125 -0.12999332
-0.037558593 -0.3207617 -0.12997559
-0.04149414 -0.3202539 -0.12995781
-0.049316406 -0.31904295 -0.12992248
-0.051279295 -0.3186914 -0.12991367
-0.053222656 -0.3183789 -0.12990485
-0.05517578 -0.3180078 -0.12989604
-0.06294922 -0.31646484 -0.12986088
-0.06682617 -0.31562498 -0.1298434
-0.07068359 -0.31474608 -0.12982593
-0.07259765 -0.31429687 -0.12981728
-0.07644531 -0.31333983 -0.12979987
-0.080273435 -0.31232423 -0.12978253
-0.08599609 -0.31072265 -0.12975661
-0.08978515 -0.30960935 -0.12973942
-0.091679685 -0.30904296 -0.12973084
-0.09356445 -0.30845702 -0.12972228
-0.09544922 -0.30785155 -0.12971377
-0.09733398 -0.30722657 -0.12970524
-0.09920898 -0.30660155 -0.12969673
-0.10108398 -0.3059961 -0.12968826
-0.10852539 -0.30333984 -0.12965447
-0.11038086 -0.3026367 -0.12964599
-0.11222656 -0.3019336 -0.1296376
-0.11407226 -0.30123046 -0.12962924
-0.11589844 -0.30048826 -0.12962085
-0.11773437 -0.29976562 -0.12961254
-0.11957031 -0.29902342 -0.12960422
-0.12139648 -0.2982617 -0.12959595
-0.12321289 -0.29748046 -0.12958767
-0.1250293 -0.29669923 -0.12957942
-0.12683593 -0.29591796 -0.12957118
-0.12864257 -0.29511717 -0.12956294
-0.13043945 -0.29429686 -0.12955478
-0.13582031 -0.29179686 -0.1295303
-0.13759765 -0.29093748 -0.1295222
-0.13936523 -0.29005858 -0.12951411
-0.14114258 -0.28917968 -0.12950607
-0.14290039 -0.28830078 -0.12949802
-0.14815429 -0.2855664 -0.1294741
-0.14989257 -0.2846289 -0.12946613
-0.15163085 -0.2836914 -0.12945823
-0.15335937 -0.28273436 -0.12945038
-0.15679687 -0.2808008 -0.12943466
-0.15850586 -0.27980468 -0.12942691
-0.16191407 -0.27783203 -0.12941131
-0.16360351 -0.27679688 -0.12940358
-0.16529296 -0.27578124 -0.1293959
-0.16696289 -0.2747461 -0.12938823
-0.1686328 -0.2736914 -0.12938057
-0.17030273 -0.2726367 -0.12937297
-0.17362304 -0.2705078 -0.12935776
-0.17527343 -0.26941407 -0.12935027
-0.17690429 -0.2683203 -0.12934276
-0.17854492 -0.26720703 -0.12933528
-0.180166 -0.26609373 -0.1293278
-0.18338867 -0.26382813 -0.12931305
-0.185 -0.26267576 -0.12930565
-0.18818359 -0.2603711 -0.12929112
-0.19134766 -0.2580078 -0.12927662
-0.19603515 -0.25439453 -0.1292551
-0.19757812 -0.25318357 -0.12924796
-0.2006543 -0.25070313 -0.12923385
-0.20217773 -0.24945311 -0.12922688
-0.2066992 -0.24564452 -0.12920608
-0.21551758 -0.23779297 -0.12916546
-0.21983398 -0.23375 -0.12914558
-0.22125 -0.2323828 -0.12913902
-0.22544922 -0.22824219 -0.12911963
-0.22821288 -0.22544922 -0.12910682
-0.22958007 -0.22402343 -0.12910056
-0.23229492 -0.22117187 -0.12908798
-0.2336328 -0.21972656 -0.1290818
-0.23628905 -0.21683593 -0.12906955
-0.23759764 -0.21535155 -0.12906349
-0.24021484 -0.21240234 -0.12905136
-0.2415039 -0.21091796 -0.12904537
-0.24277343 -0.20943359 -0.1290395
-0.24655274 -0.20490234 -0.12902194
-0.25146484 -0.19874999 -0.12899913
-0.25267577 -0.1971875 -0.1289935
-0.25623047 -0.19248046 -0.12897697
-0.2573926 -0.19089843 -0.12897152
-0.25854492 -0.1893164 -0.12896618
-0.25968748 -0.18769531 -0.12896083
-0.26195312 -0.18449219 -0.12895022
-0.26307616 -0.18287109 -0.12894501
-0.26527342 -0.17960937 -0.12893471
-0.26636717 -0.17798828 -0.12892963
-0.2674414 -0.17634766 -0.1289246
-0.26956055 -0.17302734 -0.12891468
-0.27164063 -0.16970703 -0.12890491
-0.27368164 -0.16634765 -0.12889534
-0.2746875 -0.16466796 -0.1288906
-0.27569336 -0.16296874 -0.12888588
-0.2776367 -0.1595703 -0.12887672
-0.28143555 -0.15267578 -0.12885883
-0.2832715 -0.14919922 -0.12885018
-0.2841699 -0.14746094 -0.12884586
-0.28506836 -0.14570312 -0.12884167
-0.28935546 -0.13685547 -0.12882137
-0.29099607 -0.13330078 -0.12881355
-0.29179686 -0.13150391 -0.12880974
-0.2941406 -0.12611328 -0.12879851
-0.29490232 -0.12427734 -0.12879494
-0.29564452 -0.12248047 -0.12879132
-0.29638672 -0.12064453 -0.1287878
-0.29710937 -0.118828125 -0.12878433
-0.29853514 -0.115175776 -0.12877746
-0.29990235 -0.11150391 -0.12877086
