VERSION 0.7
FIELDS x y z
SIZE 4 4 4
TYPE F F F
COUNT 1 1 1
WIDTH 1464
HEIGHT 1
VIEWPOINT 0.0 0.0 0.0 1.0 0.0 0.0 0.0
POINTS 1464
DATA ascii
-1.1524903 4.2662306 -0.10879318
-1.1219531 4.2567577 -0.108373776
-1.0916504 4.247363 -0.107962646
-1.0020899 4.2195897 -0.10676922
-0.8856543 4.1835155 -0.10527523
-0.8579004 4.1788087 -0.10502159
-0.830625 4.17584 -0.10481766
-0.749414 4.1670313 -0.10423225
-0.72253907 4.1641016 -0.10404632
-0.6957617 4.161211 -0.103864916
-0.5895508 4.1496677 -0.10318569
-0.5107617 4.141133 -0.10272087
-0.48464844 4.138301 -0.10257538
-0.45861328 4.1354685 -0.10243355
-0.3038086 4.118672 -0.10167118
-0.27822265 4.1158786 -0.10155832
-0.2526953 4.1131053 -0.10144997
-0.2272168 4.1103516 -0.10134565
-0.17641601 4.104824 -0.10114857
-0.1005664 4.0966015 -0.1008828
-0.02508789 4.0883985 -0.10065233
0.050078124 4.080234 -0.10045755
0.075068355 4.0775194 -0.10039989
0.15010741 4.075488 -0.10040054
0.17514648 4.075371 -0.10042247
0.22527343 4.075156 -0.10047733
0.3508789 4.0745897 -0.10068203
0.42652342 4.0742383 -0.10085037
0.45180663 4.074121 -0.10091411
0.47710937 4.0740037 -0.100981764
0.5278418 4.0737696 -0.10112879
0.5787207 4.073535 -0.101291694
0.6297851 4.0733204 -0.10147047
0.81006837 4.07248 -0.1022229
0.8360547 4.0723634 -0.102346644
0.8620996 4.072246 -0.10247513
0.88821286 4.072129 -0.10260681
0.9669824 4.071758 -0.10302858
0.9933789 4.0716405 -0.10317806
1.046416 4.0714064 -0.10348961
1.2347753 4.0705075 -0.10471886
1.2894434 4.070254 -0.105111904
1.372246 4.0698633 -0.10573627
1.400078 4.0697265 -0.10595383
1.4280175 4.069609 -0.10617694
1.4560742 4.069473 -0.10640457
1.4842578 4.069336 -0.10663727
1.5125586 4.069199 -0.10687515
1.5409961 4.069062 -0.10711712
1.5695508 4.068926 -0.10736492
1.5982519 4.068789 -0.107618466
1.6560546 4.0685153 -0.10814079
1.685166 4.0683594 -0.10840963
1.8330078 4.0676756 -0.10983816
1.8630469 4.0675197 -0.11014068
1.8932617 4.067383 -0.11044918
1.9236523 4.0672264 -0.11076425
1.954209 4.06707 -0.11108434
2.0158594 4.066777 -0.111743145
2.1098828 4.066562 -0.112786256
2.2381835 4.0665236 -0.11427383
2.270791 4.066504 -0.11466215
2.3036327 4.0664845 -0.115058646
2.3700097 4.066465 -0.11587191
2.403545 4.0664454 -0.116289996
2.437324 4.066426 -0.11671503
2.5056446 4.0663867 -0.11758836
2.5401855 4.0663867 -0.11803566
2.5749903 4.066367 -0.11849165
2.610078 4.0663476 -0.11895521
2.6810741 4.0663085 -0.11990804
2.717002 4.066289 -0.12039705
2.7532325 4.0662694 -0.12089414
2.7897656 4.06625 -0.12140068
2.8266015 4.0662303 -0.121915124
2.86375 4.0662107 -0.12243935
2.9012206 4.066191 -0.12297222
2.977158 4.066152 -0.12406687
3.0156446 4.0661325 -0.12462814
3.0544825 4.066113 -0.1252002
3.1731737 4.0660353 -0.12697466
3.213164 4.065605 -0.12757473
3.2607908 4.0233593 -0.12749492
3.331201 3.959004 -0.12737691
3.3543944 3.9372852 -0.12733804
3.3774805 3.9154491 -0.12729938
3.40042 3.8934765 -0.12726091
3.4683886 3.8267772 -0.12714694
3.5789158 3.713164 -0.12696159
3.6221483 3.666875 -0.12688908
3.6647851 3.620078 -0.12681751
3.685908 3.5965428 -0.12678207
3.7068846 3.572871 -0.12674688
3.7689257 3.5011523 -0.12664276
3.8296483 3.4284375 -0.12654081
3.84958 3.4039648 -0.12650731
3.8890429 3.354707 -0.12644103
3.908535 3.3299022 -0.12640831
3.9850292 3.229707 -0.12627982
4.0408006 3.153457 -0.12618609
4.059082 3.1278515 -0.12615533
4.0951953 3.0763476 -0.12609462
4.148174 2.9983008 -0.12600553
4.182715 2.9458008 -0.12594742
4.2333593 2.866367 -0.12586218
4.249922 2.839707 -0.12583429
4.282588 2.7861328 -0.1257793
4.2986817 2.7591991 -0.12575221
4.3767185 2.6233008 -0.12562074
4.421621 2.5407617 -0.12554505
4.4362497 2.5131054 -0.1255204
4.4507127 2.4853516 -0.12549599
4.4931345 2.4016407 -0.1254244
4.506943 2.3735743 -0.12540111
4.5205956 2.3454492 -0.12537806
4.5340724 2.317246 -0.1253553
4.547412 2.2889843 -0.12533277
4.560547 2.260625 -0.12531058
4.5735545 2.2322266 -0.12528862
4.586357 2.2037108 -0.12526701
4.599014 2.1751757 -0.12524559
4.611494 2.146543 -0.12522449
4.623789 2.1178515 -0.1252037
4.635937 2.0891016 -0.12518317
4.64791 2.0602734 -0.12516288
4.659736 2.0314062 -0.12514287
4.6713767 2.0024414 -0.12512317
4.682842 1.9734374 -0.12510377
4.69416 1.9443749 -0.12508461
4.727041 1.8568164 -0.12502888
4.7376466 1.8275 -0.1250109
4.768496 1.7392578 -0.12495857
4.778418 1.709746 -0.12494173
4.8164744 1.5911523 -0.12487703
4.8431735 1.5016797 -0.124831595
4.8517184 1.4717578 -0.12481704
4.8763475 1.3817383 -0.124775045
4.920908 1.200586 -0.124698885
4.927705 1.1702539 -0.12468723
4.9408007 1.1094922 -0.124664746
4.94708 1.0790625 -0.124653965
4.95917 1.0181054 -0.12463318
4.970449 0.9570117 -0.124613725
4.9758983 0.9264453 -0.124604315
4.991045 0.8345117 -0.12457811
5.0002637 0.77310544 -0.12456211
5.0045996 0.7423633 -0.12455454
5.008779 0.71160156 -0.12454723
5.0127635 0.6808203 -0.12454027
5.0166016 0.6500195 -0.12453356
5.023691 0.5883398 -0.124521084
5.032988 0.4957031 -0.1245046
5.0357323 0.46478516 -0.1244997
5.0383105 0.4338672 -0.12449508
5.040713 0.40292966 -0.12449074
5.0524707 0.18609375 -0.12446882
5.0534177 0.15507813 -0.12446691
5.054834 0.093046874 -0.124463916
5.055527 0.031015625 -0.12446209
5.0547657 -0.0930664 -0.12446203
5.0523047 -0.18609375 -0.12446512
5.0498047 -0.24808593 -0.12446863
5.046572 -0.31003904 -0.124473356
5.042627 -0.37197265 -0.12447927
5.037959 -0.43384764 -0.12448639
5.0353613 -0.4647656 -0.12449037
5.032578 -0.49566406 -0.1244947
5.0296483 -0.5265625 -0.12449924
5.023213 -0.5882812 -0.12450931
5.0197167 -0.6191211 -0.1245148
5.012246 -0.68074214 -0.12452659
4.990381 -0.83441406 -0.12456136
4.985488 -0.8650586 -0.1245692
4.9751463 -0.9263086 -0.1245858
4.969707 -0.95687497 -0.12459452
4.9641013 -0.9874219 -0.12460352
4.94624 -1.0788672 -0.1246323
4.926787 -1.170039 -0.12466373
4.9129395 -1.2306249 -0.12468616
4.9057617 -1.2608594 -0.1246978
4.8983984 -1.2910546 -0.12470974
4.850576 -1.4714062 -0.1247875
4.842002 -1.5013086 -0.124801464
4.805957 -1.6204492 -0.12486025
4.796494 -1.6501172 -0.12487568
4.767168 -1.7387891 -0.12492359
4.7570114 -1.7682421 -0.1249402
4.746748 -1.7976562 -0.12495699
4.725625 -1.8562695 -0.124991566
4.7148337 -1.8855078 -0.12500922
4.669863 -2.0018163 -0.1250829
4.6582127 -2.0307422 -0.125102
4.6463866 -2.0596094 -0.1251214
4.622226 -2.1171288 -0.12516104
4.597412 -2.174414 -0.12520176
4.5847263 -2.2029297 -0.12522261
4.5323925 -2.3163867 -0.12530859
4.518877 -2.3445508 -0.1253308
4.5052342 -2.3726757 -0.12535322
4.4632616 -2.456543 -0.12542227
4.419795 -2.539746 -0.12549376
4.4049997 -2.5673242 -0.12551814
4.39001 -2.5948045 -0.12554283
4.344121 -2.6767774 -0.1256184
4.3127146 -2.7310157 -0.12567015
4.247978 -2.838418 -0.12577686
4.2314353 -2.8650584 -0.12580411
4.197783 -2.9180467 -0.12585962
4.163535 -2.970664 -0.12591611
4.146162 -2.996836 -0.12594481
4.128662 -3.0229297 -0.12597366
4.0931444 -3.074785 -0.1260323
4.075156 -3.1005664 -0.12606198
4.0570407 -3.1262696 -0.1260919
4.0387497 -3.151875 -0.1261221
4.020303 -3.1773632 -0.12615258
4.001699 -3.2027538 -0.1261833
3.964043 -3.2532225 -0.12624548
3.925791 -3.3032618 -0.12630866
3.8869336 -3.3528905 -0.12637287
3.867285 -3.3775585 -0.12640537
3.827539 -3.426543 -0.12647104
3.8074315 -3.4508593 -0.12650429
3.7667968 -3.4991796 -0.12657146
3.7255762 -3.5470312 -0.12663965
3.7047656 -3.5708203 -0.12667406
3.5984569 -3.6878905 -0.12684993
3.576787 -3.710957 -0.12688579
3.5108886 -3.779414 -0.12699483
3.4886522 -3.8019922 -0.12703165
3.4437206 -3.846738 -0.12710604
3.421084 -3.8689451 -0.12714349
3.3982615 -3.8910155 -0.12718129
3.3753514 -3.9129686 -0.12721923
3.2665527 -3.980332 -0.12676345
3.1064649 -3.9805663 -0.12430639
3.0674024 -3.980625 -0.123717345
3.028701 -3.980703 -0.123139836
2.9903612 -3.9807615 -0.12257181
2.8037791 -3.9810545 -0.119874686
2.7674217 -3.9811132 -0.1193634
2.7313867 -3.9811718 -0.11885994
2.6956444 -3.9812305 -0.1183659
2.5901756 -3.9813867 -0.11693241
2.5555859 -3.9814453 -0.11647161
2.5212598 -3.9814842 -0.116018444
2.3534863 -3.9817576 -0.113867395
2.2557225 -3.981914 -0.11266546
2.19167 -3.9820116 -0.111899465
2.0971875 -3.982168 -0.110799044
2.035215 -3.982246 -0.110098206
1.9739941 -3.9823437 -0.10942312
1.9135253 -3.9824219 -0.10877201
1.8539453 -3.9828906 -0.108155556
1.6510546 -3.9860156 -0.10621519
1.6226562 -3.9864452 -0.10595953
1.5943848 -3.9868748 -0.10570869
1.56625 -3.9873242 -0.105463594
1.4825976 -3.9885936 -0.10475775
1.454961 -3.9890234 -0.10453205
1.4000293 -3.9898632 -0.104096025
1.3455566 -3.990703 -0.10367954
1.3184766 -3.9911132 -0.1034783
1.2378613 -3.9923437 -0.10290184
1.2111816 -3.9927537 -0.10271867
1.1845996 -3.993164 -0.102540165
1.1581055 -3.9935546 -0.102366254
1.1316992 -3.9939647 -0.102196805
1.1053905 -3.9943554 -0.10203142
1.0791503 -3.9947655 -0.10187033
1.0529981 -3.995156 -0.10171466
1.0269336 -3.9955664 -0.10156196
1.0009375 -3.995957 -0.10141445
0.94916016 -3.9967577 -0.10113142
0.92338866 -3.9971483 -0.10099527
0.89767575 -3.997539 -0.10086437
0.8720312 -3.9979296 -0.10073715
0.79546875 -3.9991014 -0.10038029
0.77006835 -3.9994922 -0.10027004
0.71942383 -4.0002537 -0.10006021
0.69417965 -4.000625 -0.09996105
0.6689746 -4.0010157 -0.09986687
0.6438281 -4.001406 -0.099775754
0.6187207 -4.001777 -0.09968901
0.5936621 -4.0021677 -0.099605784
0.54365236 -4.0029297 -0.09945097
0.49379882 -4.003691 -0.09931167
0.46892577 -4.004062 -0.099247836
0.24620117 -4.0074415 -0.0988434
0.22155273 -4.007832 -0.09881698
0.19690429 -4.008203 -0.098794855
0.123046875 -4.0093164 -0.09874981
0.098427735 -4.0096874 -0.09874214
0.049218748 -4.0104294 -0.09873842
0.0 -4.011172 -0.09874897
-0.04923828 -4.011914 -0.098774545
-0.07386719 -4.0122657 -0.098793335
-0.1231543 -4.0130076 -0.098841034
-0.1725 -4.0137696 -0.098903656
-0.22192383 -4.014492 -0.09898165
-0.24674805 -4.016406 -0.09906433
-0.37236327 -4.034297 -0.09974048
-0.42310545 -4.0415235 -0.10003992
-0.44859374 -4.0451365 -0.10019624
-0.47416013 -4.048789 -0.100356765
-0.49981445 -4.052441 -0.100521505
-0.5255566 -4.0560937 -0.10069065
-0.55137694 -4.0598044 -0.10086359
-0.5772949 -4.063496 -0.10104141
-0.6556152 -4.074629 -0.10160194
-0.7083203 -4.0821486 -0.10199831
-0.788164 -4.0935154 -0.10262777
-0.8150098 -4.097324 -0.10284664
-0.8419629 -4.101172 -0.103070274
-0.86904293 -4.1050196 -0.10329925
-0.978584 -4.120625 -0.1042654
-1.0341308 -4.1285353 -0.10477865
-1.0902538 -4.1365232 -0.1053128
-1.1755371 -4.148652 -0.1061553
-1.2042773 -4.152754 -0.10644651
-1.2331738 -4.156875 -0.106744744
-1.3596972 -4.2022853 -0.10873489
-1.3924512 -4.215039 -0.10928389
-1.4255469 -4.2279296 -0.10984249
-1.4926758 -4.2538476 -0.11098354
-1.5612011 -4.280293 -0.11216511
-1.5960253 -4.2937303 -0.11277221
-1.6312305 -4.307324 -0.11338957
-1.7028027 -4.334961 -0.11465854
-1.8509277 -4.392129 -0.117337584
-1.8890624 -4.4068556 -0.11803833
-1.9276464 -4.421738 -0.11875127
-1.9667089 -4.436816 -0.11947841
-2.0062401 -4.45209 -0.120218314
-2.0462792 -4.467539 -0.12097261
-2.2543163 -4.5478516 -0.12496166
-2.3414648 -4.5814843 -0.12666576
-2.431035 -4.6160545 -0.12843734
-2.5231543 -4.651621 -0.13027833
-2.5702147 -4.669785 -0.13122667
-2.6179688 -4.6882224 -0.13219312
-2.9043553 -4.7788672 -0.13767244
-3.0251856 -4.7130466 -0.13787445
-3.114824 -4.66166 -0.13802433
-3.1444921 -4.644121 -0.13807395
-3.1740723 -4.626406 -0.13812344
-3.203535 -4.608457 -0.1381727
-3.2329102 -4.590371 -0.13822185
-3.3203611 -4.5348825 -0.13836816
-3.406826 -4.477676 -0.13851283
-3.4638965 -4.4385743 -0.13860832
-3.5766602 -4.358164 -0.13879704
-3.6045506 -4.337617 -0.13884374
-3.6874413 -4.2747655 -0.1389825
-3.7420897 -4.2319727 -0.139074
-3.7962205 -4.1884766 -0.13916467
-3.8230662 -4.1664453 -0.13920963
-3.8497949 -4.1442184 -0.13925439
-3.8764062 -4.1218553 -0.13929899
-3.9291894 -4.0765624 -0.1393874
-3.955371 -4.0536523 -0.13943127
-3.9814062 -4.030586 -0.13947488
-4.007324 -4.007344 -0.13951832
-4.08417 -3.936504 -0.1396471
-4.1346774 -3.888457 -0.13973175
-4.159707 -3.86416 -0.13977373
-4.18459 -3.8397264 -0.13981543
-4.2093163 -3.8150976 -0.1398569
-4.2338767 -3.7903125 -0.13989809
-4.282578 -3.740254 -0.13997976
-4.330654 -3.689531 -0.14006041
-4.4248633 -3.5861914 -0.14021847
-4.471006 -3.5335546 -0.14029592
-4.4938474 -3.5070312 -0.14033423
-4.516533 -3.4803514 -0.1403723
-4.539004 -3.453496 -0.14041005
-4.605449 -3.3720312 -0.14052162
-4.6272364 -3.3445702 -0.14055823
-4.648896 -3.3169725 -0.14059459
-4.6916504 -3.2613475 -0.14066643
-4.712754 -3.2333007 -0.1407019
-4.7336717 -3.2051365 -0.14073706
-4.7750196 -3.1483593 -0.14080654
-4.79541 -3.1197655 -0.14084081
-4.8156247 -3.0910351 -0.14087479
-4.835664 -3.062168 -0.14090848
-4.855508 -3.0331445 -0.14094186
-4.933047 -2.9157617 -0.14107229
-4.9706736 -2.8562694 -0.14113563
-5.0075684 -2.796289 -0.14119776
-5.043691 -2.7358203 -0.14125857
-5.0614257 -2.7053711 -0.14128844
-5.113574 -2.6134179 -0.14137632
-5.130537 -2.5825 -0.14140491
-5.1473045 -2.5514843 -0.14143316
-5.180254 -2.4890819 -0.14148872
-5.196445 -2.4577343 -0.14151603
-5.212422 -2.4262695 -0.14154299
-5.228203 -2.3946874 -0.14156963
-5.243779 -2.3630078 -0.1415959
-5.25916 -2.3312304 -0.14162187
-5.274287 -2.2993164 -0.14164743
-5.2892184 -2.2673047 -0.14167264
-5.360879 -2.1058006 -0.14179376
-5.3880663 -2.0405078 -0.14183977
-5.414385 -1.9748437 -0.14188428
-5.452295 -1.8757031 -0.14194855
-5.4998145 -1.7423437 -0.14202914
-5.5111423 -1.708789 -0.14204836
-5.5222654 -1.6751758 -0.14206725
-5.5745215 -1.5059179 -0.14215611
-5.5843163 -1.471875 -0.1421728
-5.603242 -1.4035547 -0.14220506
-5.6123633 -1.3692968 -0.14222063
-5.638359 -1.2661523 -0.14226504
-5.646572 -1.2316406 -0.1422791
-5.662363 -1.1624805 -0.14230613
-5.669912 -1.1278125 -0.14231908
-5.691162 -1.0235156 -0.14235559
-5.716279 -0.88380855 -0.14239895
-5.7220116 -0.84878904 -0.14240888
-5.732744 -0.7785937 -0.1424275
-5.7377634 -0.743457 -0.14243624
-5.7471094 -0.6730664 -0.14245257
-5.7514744 -0.63783205 -0.14246021
-5.755576 -0.60255855 -0.14246742
-5.7594237 -0.5672461 -0.1424742
-5.7664356 -0.49656248 -0.14248665
-5.7725487 -0.42580077 -0.1424976
-5.7777243 -0.35496092 -0.14250697
-5.779941 -0.3195117 -0.14251105
-5.7819138 -0.28404295 -0.1425147
-5.783701 -0.24857421 -0.14251804
-5.7852635 -0.21308593 -0.14252104
-5.7865524 -0.17757812 -0.14252357
-5.7875977 -0.14207031 -0.1425257
-5.7884765 -0.106562495 -0.14252754
-5.789443 -0.035527345 -0.1425299
-3.2510936 -0.0 -0.13830122
-3.2510252 0.019941406 -0.13830131
-3.2508397 0.039882813 -0.13830122
-3.2495215 0.09972656 -0.13829967
-3.2480078 0.13958985 -0.13829756
-3.2447655 0.19933593 -0.13829279
-3.2434278 0.21923828 -0.13829076
-3.2419825 0.23914061 -0.13828857
-3.2386816 0.2788867 -0.13828352
-3.2368555 0.29874998 -0.13828067
-3.2257519 0.39785156 -0.13826326
-3.2231543 0.41761717 -0.13825914
-3.22042 0.43738282 -0.13825479
-3.217578 0.45710936 -0.13825028
-3.2145898 0.47683594 -0.13824551
-3.1978416 0.5751172 -0.13821863
-3.1941113 0.594707 -0.13821264
-3.1902635 0.6142773 -0.13820644
-3.186289 0.63380855 -0.13820003
-3.1821778 0.65330076 -0.13819337
-3.1779492 0.672793 -0.13818653
-3.1645312 0.73105466 -0.13816479
-3.128916 0.86589843 -0.13810691
-3.1233494 0.88501954 -0.13809784
-3.1176367 0.90410155 -0.13808852
-3.1118262 0.9231445 -0.13807905
-3.105869 0.94216794 -0.13806932
-3.0998144 0.96113276 -0.13805944
-3.0936327 0.98005855 -0.13804933
-3.0743651 1.0366015 -0.13801785
-3.0609374 1.074082 -0.13799587
-3.054033 1.0927539 -0.13798457
-3.039873 1.1299609 -0.13796139
-3.0326269 1.148496 -0.1379495
-3.0252538 1.1669726 -0.13793741
-3.0024512 1.2221289 -0.13790002
-2.9786034 1.2768164 -0.13786086
-2.9704394 1.2949414 -0.13784745
-2.9621289 1.3130273 -0.13783382
-2.9099803 1.4202734 -0.13774809
-2.9008887 1.4379492 -0.13773312
-2.8917089 1.4555469 -0.137718
-2.8824022 1.4731054 -0.13770269
-2.8729882 1.4906055 -0.1376872
-2.844072 1.5426953 -0.13763958
-2.8141797 1.5942187 -0.13759033
-2.7937305 1.6282421 -0.13755661
-2.7728417 1.6619726 -0.13752218
-2.7622364 1.6787499 -0.13750467
-2.7407227 1.7120702 -0.13746919
-2.7298143 1.7286328 -0.13745119
-2.718789 1.7451172 -0.137433
-2.6964452 1.777871 -0.13739614
-2.6851268 1.7941406 -0.13737746
-2.6621776 1.8264648 -0.13733953
-2.6150584 1.8901561 -0.13726173
-2.590908 1.9215429 -0.13722183
-2.578701 1.9371289 -0.13720167
-2.5414648 1.9833789 -0.13714013
-2.5288575 1.9986328 -0.13711928
-2.5161622 2.013789 -0.1370983
-2.5033789 2.0288866 -0.13707714
-2.4644432 2.0736327 -0.13701275
-2.451289 2.0883985 -0.13699098
-2.4380274 2.1030664 -0.13696904
-2.424707 2.1176562 -0.13694702
-2.3977442 2.146543 -0.13690242
-2.3704393 2.1750977 -0.13685724
-2.328828 2.2172265 -0.13678835
-2.3147948 2.2311132 -0.13676511
-2.2721581 2.272168 -0.1366945
-2.2577734 2.2856445 -0.1366707
-2.2287695 2.3123827 -0.13662265
-2.199453 2.3387303 -0.13657412
-2.1698046 2.3646874 -0.13652498
-2.154863 2.3775194 -0.13650022
-2.1398437 2.3902538 -0.13647535
-2.10958 2.4154491 -0.13642517
-2.0943358 2.42791 -0.13639991
-2.0636034 2.4524999 -0.13634896
-2.0325878 2.4767187 -0.13629755
-2.0169725 2.4886718 -0.13627167
-1.9855175 2.5122657 -0.1362195
-1.9696777 2.5239258 -0.13619326
-1.9537792 2.5354686 -0.13616687
-1.9378027 2.546914 -0.1361404
-1.9217676 2.558242 -0.13611381
-1.8894824 2.580625 -0.13606027
-1.8732519 2.59166 -0.13603333
-1.8569434 2.6025782 -0.13600628
-1.8241308 2.624121 -0.13595182
-1.8076367 2.634746 -0.13592447
-1.7577636 2.6659374 -0.13584171
-1.7410156 2.6761131 -0.1358139
-1.7241992 2.6861913 -0.135786
-1.7073437 2.6961718 -0.13575803
-1.6904101 2.7060351 -0.13572992
-1.6563867 2.7254686 -0.13567345
-1.5703417 2.7720506 -0.13553058
-1.5355663 2.7899413 -0.13547283
-1.518086 2.7986913 -0.13544379
-1.5005664 2.8073633 -0.13541469
-1.482998 2.815918 -0.13538553
-1.4476953 2.8326561 -0.13532689
-1.3943945 2.8569531 -0.13523833
-1.3765332 2.864824 -0.13520868
-1.3586328 2.8725977 -0.13517892
-1.304668 2.8951952 -0.13508926
-1.2684667 2.909707 -0.1350291
-1.1956054 2.9373047 -0.134908
-1.1772949 2.9439256 -0.13487756
-1.1221484 2.963086 -0.13478589
-1.0852149 2.9752734 -0.13472448
-1.0666894 2.9811914 -0.13469368
-1.0481347 2.9869921 -0.13466282
-1.0295606 2.9926953 -0.13463198
-1.0109375 2.9982421 -0.134601
-0.95492184 3.0142577 -0.13450785
-0.9174316 3.0243359 -0.13444547
-0.78543943 3.0559764 -0.13422592
-0.7664941 3.06 -0.13419439
-0.7475195 3.0639257 -0.13416284
-0.70953125 3.0714257 -0.13409962
-0.69050777 3.075 -0.13406797
-0.6714746 3.0784373 -0.13403629
-0.6142578 3.088086 -0.13394105
-0.55691403 3.0966601 -0.13384561
-0.49946287 3.1041796 -0.13374998
-0.48029295 3.1064453 -0.13371807
-0.46111327 3.1085937 -0.13368614
-0.30743164 3.1214843 -0.13343023
-0.28820312 3.1225586 -0.1333982
-0.2689746 3.1235156 -0.13336618
-0.23051757 3.125078 -0.13330211
-0.15360351 3.1267772 -0.133174
-0.13438477 3.126914 -0.13314198
-0.07674804 3.126621 -0.13304596
-0.019169921 3.1252344 -0.13295
9.765625e-06 3.1245313 -0.13291804
0.019169921 3.1237304 -0.1328861
0.076611325 3.1206055 -0.13279037
0.09573242 3.1193163 -0.1327585
0.13394532 3.1164062 -0.1326948
0.15302734 3.1147852 -0.132663
0.19114257 3.1111717 -0.13259944
0.22919922 3.1071093 -0.13253601
0.2671875 3.1025975 -0.13247266
0.30509764 3.0975976 -0.13240945
0.3240039 3.0949414 -0.13237791
0.34291014 3.0921483 -0.13234636
0.3617871 3.0892577 -0.1323149
0.38064453 3.0862305 -0.13228343
0.3994824 3.0831053 -0.13225202
0.43708006 3.0765038 -0.13218933
0.49328125 3.0657616 -0.13209556
0.5119629 3.0619726 -0.13206442
0.5306152 3.0580468 -0.13203327
0.567832 3.049863 -0.13197118
0.60493165 3.0412304 -0.1319093
0.62343746 3.0367773 -0.13187839
0.67875 3.0226562 -0.1317861
0.7520312 3.0023046 -0.1316638
0.8428027 2.9743946 -0.13151224
0.86083984 2.9684765 -0.13148214
0.8788379 2.9624608 -0.1314521
0.9147168 2.950117 -0.1313922
0.93258786 2.9437695 -0.13136233
1.021289 2.9105077 -0.1312142
1.0388964 2.9035351 -0.13118479
1.056455 2.8964648 -0.13115545
1.0739648 2.8892772 -0.1311262
1.1262109 2.8671093 -0.13103893
1.1435351 2.8595116 -0.13101
1.1608008 2.8517969 -0.13098112
1.1780273 2.8440235 -0.13095236
1.2293652 2.82 -0.13086654
1.2633301 2.8034766 -0.13080978
1.2802246 2.795078 -0.13078155
1.2970703 2.7865624 -0.1307534
1.4298145 2.7149413 -0.13053147
1.4461426 2.7055469 -0.13050419
1.4624121 2.6960742 -0.13047697
1.5108496 2.6670313 -0.13039595
1.526875 2.657168 -0.13036917
1.5587305 2.6371484 -0.13031586
1.5745605 2.6269922 -0.13028938
1.5903223 2.6167579 -0.130263
1.6216699 2.5960155 -0.13021055
1.637246 2.5854883 -0.1301845
1.6527538 2.5748827 -0.13015856
1.6835546 2.5533984 -0.130107
1.6988477 2.5425 -0.13008142
1.729248 2.5204883 -0.13003051
1.7443457 2.509336 -0.13000524
1.7593652 2.4981248 -0.12998009
1.7743163 2.4867969 -0.12995505
1.8769726 2.4051366 -0.12978315
1.8913476 2.393125 -0.12975907
1.9056445 2.381035 -0.12973514
1.919873 2.3688672 -0.12971132
1.9620702 2.331836 -0.12964061
2.003584 2.2941015 -0.12957104
2.0308592 2.2685351 -0.12952532
2.071201 2.2296093 -0.12945768
2.0844824 2.2164843 -0.12943542
2.0976954 2.2032616 -0.12941328
2.1108105 2.1899805 -0.12939128
2.1238477 2.176621 -0.12936941
2.1624706 2.1360936 -0.12930465
2.2003417 2.0949023 -0.1292411
2.212783 2.0810351 -0.12922023
2.2617579 2.0248046 -0.12913801
2.2737792 2.0105665 -0.12911785
2.2857225 1.9962695 -0.12909779
2.3210058 1.9529687 -0.12903854
2.366826 1.8942773 -0.12896156
2.3891993 1.8645507 -0.12892398
2.42208 1.8194727 -0.12886871
2.4328516 1.8043164 -0.12885062
2.454131 1.773828 -0.12881485
2.475039 1.743125 -0.12877965
2.4853516 1.7276562 -0.12876233
2.4955761 1.7121484 -0.12874514
2.5056932 1.696582 -0.1287281
2.5157225 1.680957 -0.12871122
2.5355077 1.6495508 -0.12867793
2.5452733 1.63375 -0.1286615
2.5833106 1.5700195 -0.12859742
2.61083 1.5216405 -0.12855107
2.6286817 1.4891406 -0.12852098
2.6374707 1.4728124 -0.12850614
2.6632323 1.4235351 -0.12846272
2.671621 1.4070116 -0.12844856
2.6881053 1.3738086 -0.12842076
2.6961913 1.3571484 -0.12840708
2.7351465 1.2731445 -0.12834129
2.7715917 1.1880859 -0.12827967
2.7922363 1.1365625 -0.1282447
2.7988963 1.1192969 -0.12823342
2.8054688 1.1020117 -0.12822229
2.8119433 1.0846875 -0.1282113
2.8183007 1.0673242 -0.12820053
2.82458 1.0499219 -0.12818989
2.836787 1.0150195 -0.1281692
2.8427343 0.9975 -0.1281591
2.848584 0.9799609 -0.12814917
2.854326 0.96240234 -0.12813939
2.881455 0.874082 -0.12809326
2.886582 0.8563281 -0.12808454
2.901289 0.8028906 -0.12805946
2.9059668 0.78503907 -0.12805147
2.9105566 0.76714844 -0.12804364
2.9150293 0.74921876 -0.128036
2.9194043 0.731289 -0.1280285
2.923662 0.7133203 -0.1280212
2.927822 0.695332 -0.12801409
2.9318848 0.6773047 -0.12800714
2.93584 0.6592773 -0.12800036
2.9433985 0.62312496 -0.12798737
2.9470215 0.6050195 -0.12798114
2.9505467 0.58691406 -0.12797508
2.9539452 0.5687695 -0.12796922
2.957246 0.5506055 -0.12796354
2.9635253 0.5142383 -0.12795267
2.9721484 0.45953125 -0.12793773
2.9773533 0.42300782 -0.12792867
2.9864647 0.34976563 -0.12791272
2.990371 0.3130664 -0.1279058
2.9954197 0.2579492 -0.1278968
2.996875 0.2395703 -0.1278942
2.9982421 0.22117187 -0.12789169
3.00166 0.1659375 -0.12788542
3.0025682 0.14751953 -0.12788372
3.004082 0.11064453 -0.12788078
3.0059764 0.01845703 -0.12787665
3.0051367 -0.07376953 -0.12787706
3.0046387 -0.09220703 -0.12787771
3.0033202 -0.12908202 -0.12787952
3.0015721 -0.16591796 -0.12788202
2.9993846 -0.2027539 -0.12788527
2.9967675 -0.23955077 -0.12788923
2.9937108 -0.2763086 -0.12789394
2.992031 -0.29468748 -0.12789653
2.9902246 -0.31304687 -0.12789936
2.9883204 -0.33138672 -0.12790233
2.9745898 -0.44123045 -0.12792404
2.963291 -0.51417965 -0.12794209
2.9601953 -0.5323633 -0.12794705
2.9569921 -0.5505469 -0.12795219
2.9430957 -0.6230469 -0.12797454
2.9393554 -0.6411328 -0.12798059
2.9355273 -0.6591797 -0.12798679
2.9315624 -0.67722654 -0.1279932
2.9274902 -0.69523436 -0.1279998
2.92333 -0.7132226 -0.12800652
2.9101954 -0.76703125 -0.12802784
2.9009082 -0.80279297 -0.12804292
2.8758397 -0.8916992 -0.12808374
2.8595312 -0.94466794 -0.12811035
2.8422754 -0.99736327 -0.12813854
2.8302538 -1.0323242 -0.12815818
2.8241014 -1.049746 -0.12816827
2.811455 -1.0845116 -0.12818895
2.778037 -1.1707226 -0.12824368
2.7710643 -1.1878711 -0.12825511
2.7567675 -1.2219921 -0.12827858
2.7494824 -1.2390039 -0.12829055
2.7420897 -1.2559766 -0.12830268
2.727002 -1.2897656 -0.12832746
2.7193065 -1.3066211 -0.12834011
2.6875098 -1.3735156 -0.12839237
2.6793065 -1.3901172 -0.12840585
2.6710155 -1.4066796 -0.12841949
2.662627 -1.4232031 -0.1284333
2.6368456 -1.4724609 -0.12847573
2.5919237 -1.5535351 -0.12854968
2.5826464 -1.5695899 -0.12856497
2.5249999 -1.6648241 -0.12866001
2.5150487 -1.6805273 -0.12867641
2.4948828 -1.7116991 -0.12870967
2.474336 -1.7426367 -0.12874357
2.4639354 -1.7580273 -0.12876076
2.442832 -1.7886132 -0.12879558
2.4321485 -1.8038086 -0.12881322
2.3773437 -1.8788867 -0.12890373
2.3661034 -1.8937109 -0.12892228
2.3433788 -1.923164 -0.12895985
2.331865 -1.9377929 -0.12897888
2.3202832 -1.9523437 -0.128998
2.2968457 -1.9812695 -0.12903672
2.28499 -1.9956249 -0.12905633
2.2489061 -2.0382812 -0.129116
2.224424 -2.0663867 -0.12915649
2.1870606 -2.107988 -0.12921831
2.1489258 -2.1489258 -0.1292814
2.123086 -2.1758592 -0.12932417
2.1100683 -2.1892188 -0.12934572
2.0436523 -2.2548242 -0.12945566
2.0165234 -2.2805274 -0.1295006
1.9752538 -2.318496 -0.12956893
1.9613378 -2.3309765 -0.12959197
1.9473437 -2.3433788 -0.12961517
1.9049219 -2.3801172 -0.12968548
1.8618066 -2.4161131 -0.12975688
1.7133887 -2.5305274 -0.13000296
1.6981542 -2.5414844 -0.1300282
1.6828613 -2.5523632 -0.13005358
1.6674902 -2.5631444 -0.13007908
1.6520605 -2.5738084 -0.13010468
1.6365625 -2.584414 -0.13013038
1.5738964 -2.6258984 -0.13023433
1.5421777 -2.646074 -0.13028698
1.4617773 -2.6949022 -0.13042042
1.4291894 -2.71375 -0.1304745
1.4128027 -2.7230468 -0.1305017
1.3963574 -2.7322266 -0.130529
1.2965039 -2.785332 -0.1306948
1.2627636 -2.8022265 -0.13075082
1.2458105 -2.8105078 -0.130779
1.2288085 -2.8187304 -0.13080722
1.211748 -2.8268163 -0.13083556
1.1430078 -2.8581836 -0.13094974
1.1257031 -2.865781 -0.13097851
1.0384082 -2.9021678 -0.13112354
1.0208007 -2.909121 -0.1311528
0.96773434 -2.929414 -0.131241
0.9499609 -2.935957 -0.13127054
0.8963769 -2.9549413 -0.1313596
0.87842774 -2.9610546 -0.13138947
0.86042964 -2.9670703 -0.13141939
0.82433593 -2.97875 -0.1314794
0.78807616 -2.9900196 -0.13153969
0.7334179 -3.0061133 -0.13163058
0.71511716 -3.0112305 -0.13166101
0.6967871 -3.0162694 -0.13169149
0.6600293 -3.025996 -0.13175263
0.64160156 -3.0306835 -0.13178329
0.62313473 -3.0352733 -0.131814
0.60463864 -3.0397656 -0.13184479
0.5861133 -3.0441406 -0.13187559
0.5675586 -3.048379 -0.13190646
0.5303516 -3.0565429 -0.13196836
0.4930371 -3.0642772 -0.13203044
0.47433594 -3.0679686 -0.13206157
0.45561522 -3.0715234 -0.13209271
0.41808593 -3.0783398 -0.13215517
0.38045898 -3.084707 -0.13221778
0.36160156 -3.0877147 -0.13224918
0.34273437 -3.0906055 -0.13228057
0.30492187 -3.0960546 -0.13234352
0.28598633 -3.0985937 -0.13237505
0.267041 -3.101035 -0.13240659
0.24807617 -3.1033592 -0.13243817
0.22908203 -3.1055858 -0.13246979
0.21006836 -3.1076562 -0.13250142
0.15293945 -3.1132421 -0.13259657
0.13386719 -3.1148632 -0.13262832
0.11478516 -3.116367 -0.1326601
0.09568359 -3.1177733 -0.13269192
0.03830078 -3.1212304 -0.13278747
0.019160155 -3.1221678 -0.13281934
0.0 -3.1229687 -0.13285127
-0.019169921 -3.1236522 -0.13288318
-0.038339842 -3.1242383 -0.13291512
-0.057529297 -3.1246874 -0.1329471
-0.07671875 -3.125039 -0.13297907
-0.0959082 -3.1252344 -0.13301103
-0.115117185 -3.1253514 -0.13304304
-0.13432617 -3.1253319 -0.13307504
-0.15353516 -3.1252344 -0.13310705
-0.21118164 -3.124121 -0.1332031
-0.23041014 -3.1235352 -0.13323514
-0.2496289 -3.122793 -0.13326716
-0.30728516 -3.119922 -0.13336326
-0.3265039 -3.1187108 -0.13339528
-0.34571287 -3.1174023 -0.1334273
-0.38413087 -3.114414 -0.13349137
-0.40333006 -3.1127539 -0.13352336
-0.48005858 -3.1048827 -0.13365127
-0.51836914 -3.1002343 -0.13371517
-0.53750974 -3.0977538 -0.13374706
-0.5948633 -3.0895312 -0.1338427
-0.6330371 -3.0834765 -0.13390638
-0.6520996 -3.0802538 -0.13393818
-0.6901758 -3.0734766 -0.13400169
-0.7091894 -3.0699022 -0.13403341
-0.72818357 -3.0662303 -0.13406509
-0.74715817 -3.0624218 -0.13409673
-0.7850488 -3.0544531 -0.13415994
-0.8228613 -3.0460155 -0.13422304
-0.8605859 -3.037129 -0.13428599
-0.8794043 -3.0325 -0.1343174
-0.89820313 -3.0277343 -0.13434875
-0.9357324 -3.01791 -0.1344114
-0.9544531 -3.012832 -0.13444266
-1.0104492 -2.9968164 -0.13453612
-1.0290527 -2.99125 -0.13456716
-1.0846875 -2.9738476 -0.13466005
-1.1031641 -2.9678125 -0.13469087
-1.1583886 -2.9490235 -0.13478309
-1.176748 -2.9425194 -0.13481373
-1.1950488 -2.9359179 -0.1348443
-1.2133203 -2.9291992 -0.13487482
-1.2859863 -2.9011328 -0.13499618
-1.3040625 -2.893867 -0.13502638
-1.32208 -2.8864453 -0.13505648
-1.39375 -2.8556445 -0.1351762
-1.4115624 -2.8476758 -0.13520597
-1.4293164 -2.8395703 -0.13523564
-1.4823145 -2.8146288 -0.13532421
-1.5173925 -2.7974412 -0.13538286
-1.5522851 -2.7798047 -0.13544117
-1.5869628 -2.7617383 -0.13549915
-1.6214257 -2.7432032 -0.13555676
-1.655664 -2.7242382 -0.135614
-1.7066015 -2.6950195 -0.13569917
-1.7234668 -2.6850586 -0.13572736
-1.7402636 -2.6749804 -0.13575548
-1.7903028 -2.644121 -0.13583915
-1.8233594 -2.6230273 -0.13589446
-1.8561621 -2.6015038 -0.13594934
-1.9529883 -2.534414 -0.13611136
-1.9688867 -2.5228906 -0.13613799
-1.9847168 -2.51125 -0.13616449
-2.0004785 -2.4995117 -0.13619089
-2.0161622 -2.487656 -0.13621712
-2.0317774 -2.4757226 -0.13624327
-2.0473144 -2.463672 -0.1362693
-2.0627832 -2.4515429 -0.1362952
-2.0781837 -2.4393163 -0.136321
-2.0935059 -2.4269726 -0.13634662
-2.1087499 -2.4145312 -0.13637218
-2.123916 -2.401992 -0.13639759
-2.1390233 -2.3893554 -0.13642287
-2.1540332 -2.376621 -0.13644804
-2.183838 -2.3508594 -0.13649796
-2.2279491 -2.3115234 -0.13657187
-2.2424903 -2.2982225 -0.13659623
-2.2569432 -2.2848241 -0.13662046
-2.285625 -2.2577343 -0.13666855
-2.327998 -2.2164452 -0.1367396
-2.341953 -2.2024803 -0.13676299
-2.476699 -2.0581446 -0.13698901
-2.489668 -2.0432227 -0.13701078
-2.5280468 -1.9979882 -0.13707522
-2.5779004 -1.9365429 -0.1371589
-2.6497557 -1.841953 -0.13727966
-2.7180274 -1.7446289 -0.13739443
-2.7290528 -1.7281445 -0.13741298
-2.750791 -1.6949804 -0.13744955
-2.7614844 -1.6782812 -0.13746755
-2.7720995 -1.6615233 -0.1374854
-2.7825975 -1.6446874 -0.13750309
-2.843369 -1.5423242 -0.13760541
-2.853115 -1.5250391 -0.13762183
-2.8627636 -1.5076758 -0.1376381
-2.8722851 -1.4902539 -0.13765417
-2.8817186 -1.4727734 -0.13767006
-2.8910253 -1.4552343 -0.13768578
-2.9002244 -1.4376172 -0.13770127
-2.9359276 -1.3666016 -0.13776152
-2.9445605 -1.3487109 -0.13777609
-2.961494 -1.3127344 -0.13780467
-3.001875 -1.2218945 -0.13787293
-3.0171971 -1.1851758 -0.13789885
-3.0246973 -1.1667578 -0.13791154
-3.039336 -1.1297461 -0.13793632
-3.0534961 -1.0925586 -0.13796031
-3.0603905 -1.0738868 -0.13797201
-3.0738573 -1.0364257 -0.13799484
-3.0931542 -0.9799023 -0.13802761
-3.099336 -0.96097654 -0.1380381
-3.1113575 -0.9230078 -0.13805854
-3.1228905 -0.8848828 -0.13807817
-3.1284862 -0.8657617 -0.13808769
-3.1445117 -0.80818355 -0.13811499
-3.1495996 -0.78892577 -0.13812368
-3.15459 -0.76964843 -0.1381322
-3.1687694 -0.71156245 -0.13815644
-3.1899414 -0.6141797 -0.13819274
-3.1975489 -0.5750586 -0.13820583
-3.2046483 -0.53583986 -0.13821809
-3.2080078 -0.5161914 -0.13822393
-3.21124 -0.4965039 -0.13822952
-3.2173436 -0.45710936 -0.1382401
-3.220205 -0.43736327 -0.13824509
-3.2229395 -0.41761717 -0.13824983
-3.2255468 -0.39785156 -0.13825439
-3.2366796 -0.29874998 -0.13827401
-3.2402637 -0.25902343 -0.13828039
-3.2446582 -0.19935547 -0.13828836
-3.245879 -0.17943358 -0.1382906
-3.2469628 -0.15953125 -0.13829261
-3.2479296 -0.13958985 -0.13829443
-3.2494628 -0.09972656 -0.13829744
-3.2508202 -0.039902344 -0.13830031
-3.2510157 -0.019960936 -0.13830088
-2.2590625 -0.0 -0.13664842
-2.2590332 0.013867187 -0.13664852
-2.2586815 0.04158203 -0.13664824
-2.2583787 0.055449218 -0.13664787
-2.2579882 0.069296874 -0.13664737
-2.2562988 0.110839844 -0.13664499
-2.2555566 0.1246875 -0.1366439
-2.2538085 0.15234375 -0.1366413
-2.2528026 0.16617188 -0.13663974
-2.2517188 0.17999999 -0.13663809
-2.2492774 0.20759766 -0.13663433
-2.2479198 0.22140625 -0.1366322
-2.244951 0.24896483 -0.13662755
-2.2433496 0.26273438 -0.13662504
-2.2398534 0.29021484 -0.13661951
-2.236045 0.31767577 -0.13661346
-2.233994 0.33138672 -0.13661018
-2.224951 0.38605466 -0.13659571
-2.2224805 0.39970702 -0.13659176
-2.2172656 0.42691407 -0.13658334
-2.2145312 0.44048828 -0.13657893
-2.211709 0.4540625 -0.13657437
-2.2058203 0.4811328 -0.13656487
-2.1995897 0.508125 -0.13655475
-2.1930175 0.53503907 -0.1365441
-2.1825292 0.5752539 -0.13652706
-2.1788573 0.5885937 -0.13652107
-2.1712694 0.6152344 -0.13650873
-2.1673632 0.6285156 -0.13650236
-2.1633594 0.64177734 -0.13649583
-2.1465235 0.69453126 -0.13646834
-2.1421094 0.7076562 -0.13646112
-2.1138964 0.78574216 -0.13641496
-2.1089063 0.79865235 -0.13640678
-2.0986817 0.824375 -0.13639003
-2.093457 0.83718747 -0.13638148
-2.0881445 0.8499609 -0.13637276
-2.0772948 0.87541014 -0.13635492
-2.0428123 0.9508984 -0.13629828
-2.0367968 0.9633398 -0.1362884
-2.0245116 0.9881055 -0.1362682
-2.0119336 1.0127343 -0.13624752
-1.9990429 1.0371875 -0.13622628
-1.9924804 1.049336 -0.1362155
-1.9858593 1.0614648 -0.13620457
-1.9585546 1.1095117 -0.13615958
-1.951543 1.1214062 -0.13614805
-1.9444629 1.1332617 -0.13613635
-1.930078 1.1568359 -0.13611268
-1.8774121 1.2378515 -0.13602579
-1.8696094 1.2492383 -0.13601293
-1.853789 1.2718359 -0.13598679
-1.8212988 1.3164258 -0.13593315
-1.8046386 1.3383985 -0.13590562
-1.7705078 1.3817188 -0.13584921
-1.7618066 1.3924023 -0.13583483
-1.6991113 1.4656445 -0.13573115
-1.6806152 1.4860547 -0.13570055
-1.6428808 1.5261718 -0.13563812
-1.6236426 1.5458398 -0.13560629
-1.6041698 1.5652734 -0.13557406
-1.5844531 1.5844727 -0.1355414
-1.5745116 1.5939648 -0.13552494
-1.5645117 1.6033984 -0.13550839
-1.5544531 1.6127734 -0.13549171
-1.544336 1.6220703 -0.13547495
-1.5341601 1.6313281 -0.13545813
-1.5239453 1.6404883 -0.13544117
-1.5136523 1.6496093 -0.13542412
-1.4824706 1.6765429 -0.13537249
-1.4719628 1.6853906 -0.13535507
-1.429414 1.7201171 -0.13528456
-1.3969531 1.7454296 -0.13523075
-1.3860253 1.7537304 -0.13521263
-1.3750585 1.7619727 -0.13519444
-1.3640332 1.7701367 -0.13517617
-1.3529589 1.7782226 -0.1351578
-1.3418456 1.78625 -0.13513936
-1.3306738 1.7941992 -0.13512082
-1.3194629 1.8020898 -0.13510226
-1.2968848 1.8176367 -0.1350648
-1.2855371 1.825332 -0.13504596
-1.2511914 1.8478906 -0.13498898
-1.2396581 1.8552734 -0.13496985
-1.2280761 1.862578 -0.13495062
-1.2047753 1.8769726 -0.13491195
-1.1813085 1.8910742 -0.134873
-1.1695117 1.8980078 -0.13485344
-1.1458007 1.9116601 -0.13481407
-1.1338867 1.9183593 -0.1347943
-1.0737109 1.9508008 -0.13469438
-1.0248926 1.975371 -0.1346133
-1.0125977 1.9813281 -0.13459289
-1.0002637 1.9871875 -0.1345724
-0.9879004 1.9929882 -0.13455187
-0.95060545 2.0099022 -0.13448991
-0.93811524 2.0153906 -0.13446917
-0.91303706 2.0261328 -0.13442749
-0.9004492 2.0313866 -0.13440657
-0.887832 2.0365624 -0.1343856
-0.83705074 2.0564258 -0.1343012
-0.8115039 2.0658984 -0.13425875
-0.76006836 2.083867 -0.13417324
-0.7212402 2.0964844 -0.13410869
-0.70825195 2.1005468 -0.13408712
-0.6560547 2.115918 -0.1340003
-0.6166992 2.126582 -0.13393486
-0.56395507 2.139668 -0.13384712
-0.5374707 2.1457226 -0.13380305
-0.52420896 2.1486523 -0.13378102
-0.49764648 2.1541991 -0.1337368
-0.48433593 2.1568553 -0.13371466
-0.4710156 2.1594336 -0.13369249
-0.45767578 2.1619337 -0.13367029
-0.404209 2.1710546 -0.13358131
-0.3908203 2.173125 -0.13355902
-0.3774121 2.1751173 -0.13353671
-0.35057616 2.178867 -0.13349205
-0.32370117 2.1822655 -0.1334473
-0.3102539 2.1838477 -0.13342491
-0.29679686 2.185332 -0.1334025
-0.28333983 2.1867578 -0.1333801
-0.26987305 2.1880858 -0.13335767
-0.25639647 2.1893163 -0.13333525
-0.24291015 2.1904883 -0.13331278
-0.18895507 2.1943164 -0.13322292
-0.16196288 2.1957226 -0.13317797
-0.14845702 2.1963282 -0.1331555
-0.13495117 2.1968164 -0.133133
-0.094453126 2.1978126 -0.1330655
-0.06745117 2.1980665 -0.13302054
-0.040458985 2.1979883 -0.13297556
-0.02696289 2.1978126 -0.13295306
-0.013476562 2.1975586 -0.1329306
9.765625e-06 2.197246 -0.13290814
0.013486328 2.1968164 -0.13288568
0.040429685 2.1957421 -0.13284077
0.06735352 2.194336 -0.13279589
0.08080078 2.1935155 -0.13277349
0.09423828 2.1926172 -0.13275108
0.107675776 2.191621 -0.13272868
0.14791992 2.188164 -0.13266161
0.16131836 2.186836 -0.13263927
0.17470703 2.1854296 -0.13261694
0.20144531 2.1824024 -0.13257238
0.21479492 2.180742 -0.1325501
0.22813477 2.1790235 -0.13252786
0.24145508 2.177246 -0.13250566
0.25476563 2.1753516 -0.13248347
0.2680664 2.173379 -0.13246128
0.30786133 2.1669922 -0.13239488
0.3211035 2.164707 -0.13237281
0.3343164 2.1623242 -0.13235074
0.34751952 2.1598828 -0.13232873
0.38703123 2.1520507 -0.13226284
0.40015623 2.1492772 -0.13224092
0.4132715 2.1464062 -0.13221905
0.42636716 2.1434765 -0.1321972
0.46551758 2.1342187 -0.13213187
0.47852537 2.1309764 -0.13211018
0.4915039 2.1276367 -0.13208851
0.53032225 2.1171875 -0.1320237
0.581748 2.1021678 -0.13193788
0.62003905 2.0901172 -0.13187395
0.6327539 2.0859375 -0.1318527
0.64543945 2.0816796 -0.13183153
0.65808594 2.0773437 -0.13181041
0.6833105 2.0684373 -0.1317683
0.69587886 2.0638866 -0.1317473
0.70841795 2.0592577 -0.13172635
0.7209277 2.054531 -0.13170548
0.73339844 2.049746 -0.13168463
0.7582617 2.0399413 -0.1316431
0.78298825 2.029863 -0.13160181
0.7953027 2.0246875 -0.13158123
0.8198437 2.0141602 -0.13154024
0.8320605 2.0087695 -0.13151982
0.8442383 2.0033202 -0.13149948
0.8563867 1.997793 -0.13147919
0.8684863 1.9921875 -0.13145897
0.9045996 1.9749609 -0.13139862
0.9165625 1.9690624 -0.13137864
0.999209 1.9258789 -0.13124046
1.0108496 1.9194336 -0.13122101
1.0224609 1.9129101 -0.1312016
1.0340332 1.9063281 -0.13118222
1.0570313 1.8929297 -0.13114378
1.0684668 1.8861327 -0.13112465
1.0798633 1.8792773 -0.13110559
1.0912207 1.8723437 -0.13108657
1.1025293 1.865332 -0.13106768
1.1250098 1.8511328 -0.13103007
1.1473144 1.8366601 -0.13099276
1.1583984 1.8293359 -0.13097419
1.1694531 1.8219335 -0.13095573
1.1804395 1.8144531 -0.13093734
1.213125 1.7916796 -0.13088264
1.2239257 1.7839453 -0.13086455
1.2453809 1.7683203 -0.13082865
1.2560449 1.7603906 -0.1308108
1.277207 1.744375 -0.13077535
1.2877051 1.7362695 -0.1307578
1.3085644 1.7198827 -0.13072285
1.3394727 1.6948242 -0.13067108
1.3598144 1.677832 -0.13063703
1.369912 1.6692382 -0.1306201
1.3899316 1.6518945 -0.13058656
1.4195703 1.6254101 -0.1305369
1.4487011 1.5983984 -0.13048807
1.4583105 1.5892968 -0.13047197
1.4678515 1.5801171 -0.13045597
1.4773339 1.5708789 -0.13044009
1.4961425 1.5522656 -0.13040853
1.5239062 1.5239062 -0.13036197
1.5421289 1.5047461 -0.1303314
1.5866504 1.4558984 -0.13025671
1.595371 1.4459765 -0.13024208
1.6040429 1.435996 -0.13022755
1.6211914 1.4158789 -0.13019875
1.6296679 1.4057617 -0.13018453
1.6464355 1.3853515 -0.13015637
1.6547265 1.3750781 -0.13014244
1.662959 1.3647461 -0.13012862
1.6711328 1.354375 -0.1301149
1.6792284 1.3439648 -0.13010128
1.6952441 1.3229687 -0.13007437
1.7110058 1.3018163 -0.13004789
1.7265038 1.2804492 -0.13002184
1.7341504 1.269707 -0.13000898
1.7492676 1.2480859 -0.12998357
1.7567285 1.237207 -0.12997104
1.7641113 1.2263086 -0.12995863
1.7858789 1.1933007 -0.12992199
1.792998 1.182207 -0.12990999
1.8070507 1.1599023 -0.12988634
1.8139648 1.1486914 -0.1298747
1.8475488 1.0920312 -0.12981813
1.8731738 1.0460156 -0.12977497
1.9036132 0.98765624 -0.12972362
1.9378124 0.9165234 -0.12966588
1.9486425 0.892539 -0.1296476
1.9694335 0.84421873 -0.12961245
1.9793848 0.8198828 -0.12959561
1.984248 0.8076758 -0.12958737
1.9937598 0.783164 -0.12957126
2.0074804 0.7461914 -0.12954801
2.0205274 0.70900387 -0.12952586
2.0368946 0.6590625 -0.12949808
2.040791 0.6465234 -0.12949143
2.05916 0.58347654 -0.12946016
2.0659766 0.55810547 -0.12944852
2.0692773 0.5453906 -0.1294429
2.0724902 0.53265625 -0.12943739
2.075625 0.51992184 -0.12943205
2.078701 0.50714844 -0.12942678
2.0816894 0.49435547 -0.12942167
2.0846093 0.4815625 -0.12941669
2.0928905 0.4430664 -0.12940246
2.0980272 0.41732422 -0.12939365
2.1004784 0.40441406 -0.12938939
2.1028516 0.3915039 -0.12938532
2.1051464 0.37859374 -0.12938137
2.1095116 0.35271484 -0.12937379
2.111582 0.3397461 -0.12937023
2.1173143 0.30080077 -0.12936026
2.1190722 0.28779295 -0.1293572
2.1207519 0.27478516 -0.12935422
2.1223536 0.26175782 -0.12935142
2.1238768 0.24873047 -0.12934875
2.1253126 0.23568359 -0.12934622
2.1291797 0.1965039 -0.12933935
2.1303124 0.1834375 -0.12933733
2.1313672 0.17037109 -0.12933543
2.1323438 0.15728515 -0.12933366
2.1340625 0.13109374 -0.12933053
2.134795 0.11800781 -0.12932916
2.1354687 0.10490234 -0.12932792
2.1360643 0.091796875 -0.12932678
2.137617 0.039335936 -0.12932363
2.1379101 -0.013125 -0.12932256
2.1377928 -0.02625 -0.12932263
2.1373143 -0.052480467 -0.12932314
2.136963 -0.06558593 -0.12932359
2.1360254 -0.0918164 -0.1293249
2.1331933 -0.14421874 -0.12932906
2.1279004 -0.20958984 -0.12933716
2.1266015 -0.22265625 -0.12933917
2.1222558 -0.26175782 -0.129346
2.1172168 -0.30080077 -0.129354
2.115371 -0.31378907 -0.12935692
2.1134667 -0.32677734 -0.12935995
2.1093946 -0.35271484 -0.12936646
2.1072462 -0.3656445 -0.1293699
2.1050196 -0.37859374 -0.12937348
2.1003418 -0.40441406 -0.12938099
2.0978808 -0.41730466 -0.12938495
2.084453 -0.48154294 -0.12940665
2.0815332 -0.49433592 -0.12941138
2.0690918 -0.54535156 -0.12943155
2.065791 -0.55806637 -0.12943693
2.0554395 -0.5960742 -0.12945375
2.0481544 -0.62130857 -0.1294656
2.03667 -0.6590039 -0.12948434
2.0286424 -0.6840039 -0.12949745
2.0245018 -0.6964844 -0.12950422
2.0027442 -0.758457 -0.12953982
1.998164 -0.7707812 -0.12954731
1.9839844 -0.8075781 -0.12957051
1.9741699 -0.8319531 -0.12958664
1.9691503 -0.8441211 -0.12959486
1.9536718 -0.8803906 -0.12962027
1.8852441 -1.0225977 -0.12973274
1.879082 -1.0342382 -0.12974289
1.8665527 -1.0573828 -0.12976353
1.8601757 -1.0689062 -0.12977402
1.8472265 -1.0918359 -0.12979536
1.8406445 -1.1032422 -0.12980619
1.8339942 -1.1146094 -0.12981716
1.8272754 -1.1259375 -0.12982821
1.8136327 -1.1484765 -0.12985072
1.8067089 -1.159668 -0.12986211
1.7997167 -1.1708398 -0.12987365
1.7926562 -1.1819726 -0.1298853
1.7783399 -1.2041016 -0.1299089
1.771084 -1.2150977 -0.12992088
1.7637597 -1.2260547 -0.12993297
1.7563769 -1.2369921 -0.12994516
1.748916 -1.2478515 -0.12995748
1.7413867 -1.2586914 -0.12996992
1.7106445 -1.301543 -0.13002068
1.7028027 -1.3121485 -0.13003363
1.6788671 -1.3436913 -0.13007316
1.6460644 -1.3850585 -0.13012737
1.6208105 -1.4155663 -0.13016911
1.6122754 -1.4256445 -0.13018325
1.6036816 -1.435664 -0.13019745
1.586289 -1.4555664 -0.13022621
1.5775 -1.4654297 -0.13024074
1.5686523 -1.4752538 -0.13025539
1.559746 -1.485 -0.13027011
1.5143359 -1.5330468 -0.13034524
1.4957616 -1.551875 -0.130376
1.4863867 -1.5612109 -0.1303915
1.4769531 -1.5704882 -0.13040712
1.4674609 -1.579707 -0.13042283
1.4483203 -1.5979882 -0.13045454
1.438662 -1.6070312 -0.13047054
1.409375 -1.6338476 -0.13051906
1.3994921 -1.6426758 -0.13053542
1.37958 -1.6601367 -0.1305684
1.3695409 -1.6688086 -0.13058504
1.3594531 -1.6774023 -0.13060176
1.3391113 -1.6943749 -0.13063547
1.3288574 -1.7027929 -0.13065246
1.3082031 -1.719414 -0.13068669
1.2978027 -1.7276367 -0.13070394
1.266289 -1.7519336 -0.13075617
1.2235742 -1.7834375 -0.13082701
1.2019238 -1.7988281 -0.13086292
1.1910352 -1.8064063 -0.130881
1.1691016 -1.8213867 -0.13091737
1.1469824 -1.8361132 -0.13095407
1.1358594 -1.8433789 -0.13097252
1.1134667 -1.8576952 -0.13100967
1.1022071 -1.8647655 -0.13102837
1.079541 -1.8786913 -0.13106598
1.0681542 -1.8855468 -0.13108486
1.0452343 -1.8990625 -0.13112289
0.9988965 -1.9252734 -0.13119984
0.951914 -1.9503906 -0.13127783
0.85611326 -1.9971484 -0.13143693
0.8439648 -2.0026758 -0.13145712
0.8195801 -2.0134962 -0.13149762
0.80733395 -2.0188086 -0.13151798
0.79505855 -2.0240233 -0.13153838
0.74560547 -2.0442188 -0.13162056
0.7331641 -2.049082 -0.13164124
0.72069335 -2.0538476 -0.13166195
0.70819336 -2.0585546 -0.13168274
0.6956543 -2.0631835 -0.13170357
0.6830859 -2.0677538 -0.13172446
0.65787107 -2.0766406 -0.1317664
0.5943359 -2.097539 -0.131872
0.58155274 -2.1014843 -0.13189326
0.54302734 -2.1128516 -0.13195732
0.5172363 -2.120039 -0.13200021
0.49133787 -2.1269336 -0.13204329
0.47835937 -2.1302538 -0.13206488
0.46535155 -2.133496 -0.13208652
0.4523242 -2.13666 -0.1321082
0.42621094 -2.1427538 -0.13215162
0.41312498 -2.1456835 -0.1321734
0.40001953 -2.148535 -0.1321952
0.37374023 -2.1539843 -0.13223892
0.36057615 -2.1565819 -0.13226083
0.34739256 -2.159121 -0.13228276
0.33419922 -2.1615624 -0.13230473
0.32097656 -2.1639452 -0.1323267
0.25467774 -2.1745703 -0.13243708
0.24136718 -2.1764648 -0.13245924
0.20135742 -2.1816406 -0.13252585
0.17464843 -2.1846874 -0.13257034
0.16125976 -2.1860743 -0.13259262
0.14787109 -2.1874022 -0.13261491
0.12105469 -2.189785 -0.13265957
0.08077148 -2.1927538 -0.13272665
0.06732421 -2.1935742 -0.13274907
0.05387695 -2.1943164 -0.13277143
0.013486328 -2.1960547 -0.13283871
9.765625e-06 -2.1964452 -0.13286117
-0.067421876 -2.1972852 -0.13297352
-0.09441406 -2.1970313 -0.1330185
-0.12140625 -2.1964452 -0.13306345
-0.1484082 -2.1955273 -0.13310847
-0.18888672 -2.1935546 -0.13317592
-0.21586913 -2.1918163 -0.1332209
-0.2293457 -2.1908007 -0.13324335
-0.24283202 -2.1897266 -0.13326584
-0.29668945 -2.1845703 -0.13335562
-0.31015626 -2.183086 -0.13337806
-0.32359374 -2.1815038 -0.13340047
-0.35045898 -2.1781054 -0.13344525
-0.36387694 -2.1762695 -0.13346761
-0.39069334 -2.1723633 -0.13351236
-0.40408203 -2.1702929 -0.13353467
-0.41746092 -2.1681445 -0.13355699
-0.43083006 -2.1658983 -0.13357928
-0.4708496 -2.1586719 -0.13364603
-0.4841699 -2.1560936 -0.13366827
-0.4974707 -2.1534374 -0.13369045
-0.5107617 -2.1507032 -0.13371263
-0.5240332 -2.1478906 -0.13373476
-0.5372949 -2.1450195 -0.13375688
-0.590166 -2.1325781 -0.13384512
-0.61648434 -2.1258593 -0.13388905
-0.6427441 -2.1188476 -0.13393286
-0.6558398 -2.1151953 -0.13395472
-0.668916 -2.1114843 -0.13397655
-0.7080078 -2.0998242 -0.1340418
-0.74689454 -2.0874414 -0.13410671
-0.75981444 -2.083164 -0.1341283
-0.7727051 -2.078789 -0.13414982
-0.78557616 -2.0743358 -0.1341713
-0.7984082 -2.0698047 -0.13419273
-0.8112304 -2.0651953 -0.13421415
-0.82401365 -2.0605078 -0.13423549
-0.8495117 -2.0508983 -0.13427809
-0.9127343 -2.0254493 -0.13438368
-0.92529297 -2.0201561 -0.13440466
-0.9503027 -2.0092773 -0.13444644
-0.96276367 -2.003711 -0.13446727
-0.9751855 -1.9980859 -0.13448803
-0.9999511 -1.9865625 -0.1345294
-1.0122753 -1.9807031 -0.13454999
-1.0368261 -1.9687304 -0.13459103
-1.0490429 -1.9626172 -0.13461146
-1.0612304 -1.9564452 -0.1346318
-1.0733789 -1.9501953 -0.13465214
-1.0975488 -1.9374413 -0.13469253
-1.1573242 -1.9042773 -0.13479249
-1.1809472 -1.8904883 -0.134832
-1.192705 -1.8834765 -0.13485166
-1.2160742 -1.8692383 -0.13489075
-1.2392774 -1.854707 -0.13492955
-1.2508105 -1.8473437 -0.13494886
-1.2851562 -1.8247851 -0.13500631
-1.2965039 -1.8171289 -0.13502532
-1.3078125 -1.8093945 -0.13504423
-1.319082 -1.801582 -0.13506307
-1.3303027 -1.793711 -0.13508186
-1.3636523 -1.7696484 -0.13513766
-1.3746777 -1.7614844 -0.13515614
-1.3965625 -1.7449609 -0.13519277
-1.4182519 -1.7281445 -0.1352291
-1.4290136 -1.7196484 -0.13524711
-1.4504004 -1.7024218 -0.13528293
-1.4610058 -1.6937109 -0.1353007
-1.4715625 -1.6849414 -0.13531837
-1.5337597 -1.6308789 -0.13542257
-1.5439355 -1.6216406 -0.13543963
-1.5741211 -1.5935546 -0.13549021
-1.5840625 -1.5840429 -0.13550687
-1.5939453 -1.5744921 -0.13552342
-1.6037695 -1.5648632 -0.13553993
-1.6135352 -1.5551953 -0.1355563
-1.6232421 -1.5454491 -0.13557257
-1.6424804 -1.5257813 -0.13560481
-1.6520019 -1.5158398 -0.1356208
-1.6986914 -1.4653125 -0.13569915
