VERSION 0.7
FIELDS x y z
SIZE 4 4 4
TYPE F F F
COUNT 1 1 1
WIDTH 1400
HEIGHT 1
VIEWPOINT 0.0 0.0 0.0 1.0 0.0 0.0 0.0
POINTS 1400
DATA ascii
0.8848242 -0.5833789 -0.12146972
0.8778125 -0.5942969 -0.121503904
0.8708203 -0.6052734 -0.12154785
0.8672461 -0.61074215 -0.12156982
0.8601172 -0.6216211 -0.121630855
0.8565234 -0.62705076 -0.12166504
0.85287106 -0.63248044 -0.12170166
0.8346093 -0.6595117 -0.121911615
0.8233984 -0.6756445 -0.12207764
0.81958985 -0.6810742 -0.12213623
0.8158398 -0.68642575 -0.12219482
0.8120117 -0.69171876 -0.1222583
0.80435544 -0.70240235 -0.122390136
0.7888086 -0.7237109 -0.122690424
0.77693355 -0.7396289 -0.12294189
0.7688867 -0.7501953 -0.12312256
0.76082027 -0.7607422 -0.12331299
0.75671875 -0.76603514 -0.12341552
0.74439454 -0.7817773 -0.12373291
0.73609376 -0.7923047 -0.123952635
0.7276953 -0.80279297 -0.12418701
0.71492183 -0.8185156 -0.12455566
0.7105859 -0.8237109 -0.12468506
0.68878907 -0.84978515 -0.12537353
0.68435544 -0.8549609 -0.12552002
0.6798828 -0.8601758 -0.1256665
0.6754297 -0.86537105 -0.12581787
0.6663867 -0.8757422 -0.12613037
0.65724605 -0.8861523 -0.12645264
0.64341795 -0.90166014 -0.12695557
0.6387695 -0.90681636 -0.12713623
0.634043 -0.9119922 -0.127312
0.6293164 -0.91718745 -0.12749267
0.6245703 -0.9223633 -0.12767577
0.61978513 -0.92753905 -0.12786376
0.615 -0.9326758 -0.1280542
0.60537106 -0.94304687 -0.12843993
0.3609961 -0.57779294 -0.07808838
0.35804686 -0.5809375 -0.07820801
0.35503906 -0.58404297 -0.07833252
0.3520117 -0.587168 -0.07846435
0.3490039 -0.5903125 -0.078593746
0.34589842 -0.59341794 -0.07872803
0.3397461 -0.5996484 -0.079001464
0.3335742 -0.60589844 -0.0792749
0.33042967 -0.6090625 -0.07941406
0.3241211 -0.61529297 -0.07970459
0.32091796 -0.61843747 -0.07985351
0.31773436 -0.6215625 -0.08000244
0.31449217 -0.6246875 -0.08015381
0.31123045 -0.6277734 -0.080310054
0.3080078 -0.63091797 -0.08046631
0.3013867 -0.6371875 -0.08078369
0.298125 -0.64029294 -0.08094971
0.29136717 -0.6465234 -0.08128174
0.28804687 -0.649668 -0.08144775
0.28464842 -0.65273434 -0.081621096
0.27779296 -0.65904295 -0.081970215
0.27089843 -0.6652734 -0.08232666
0.2673828 -0.66841793 -0.08251221
0.26033202 -0.6746875 -0.08288818
0.25318357 -0.680918 -0.083269045
0.24591796 -0.68722653 -0.083659664
0.24234374 -0.69035155 -0.08385986
0.23124999 -0.69980466 -0.08447021
0.22748046 -0.7029297 -0.08468018
0.21998046 -0.70921874 -0.08510986
0.20457031 -0.72181636 -0.08599121
0.20072265 -0.7249805 -0.08622314
0.19679686 -0.728164 -0.08644775
0.18482421 -0.7377148 -0.0871582
0.18078125 -0.74083984 -0.087402344
0.17677733 -0.74398434 -0.08764892
0.17265625 -0.747207 -0.087895505
0.16851562 -0.75035155 -0.088144526
0.16445312 -0.75349605 -0.08840088
0.15603516 -0.7599023 -0.088918455
0.15185547 -0.7630664 -0.08917724
0.1390039 -0.77265626 -0.089978024
0.13035156 -0.779082 -0.090529785
0.12591797 -0.7822656 -0.09081787
0.11705078 -0.7886914 -0.09138428
0.10802734 -0.7951172 -0.09197021
0.094277345 -0.8048242 -0.092878416
0.085 -0.8112695 -0.09349121
0.080273435 -0.8145117 -0.09380615
0.07552734 -0.81773436 -0.094123535
0.07076172 -0.82099605 -0.09444824
0.06111328 -0.82748044 -0.09510253
0.056210935 -0.8307617 -0.09543701
0.04675781 -0.84521484 -0.09702636
0.03722656 -0.86335933 -0.09904541
0.016660156 -0.90193355 -0.10339599
0.0053125 -0.8636328 -0.09898681
5.859375e-05 -0.8669726 -0.099365234
-0.005292969 -0.8702148 -0.09974853
-0.016074218 -0.87689453 -0.1005249
-0.032617185 -0.886914 -0.10172607
-0.043886717 -0.8936133 -0.10254639
-0.049492188 -0.8969531 -0.102963865
-0.06683593 -0.9070898 -0.10425293
-0.07269531 -0.91046876 -0.10468505
-0.08455078 -0.91724604 -0.10557861
-0.102773435 -0.92749995 -0.106958
-0.10894531 -0.9308984 -0.107426755
-0.121503904 -0.9377734 -0.108381346
-0.13416015 -0.9446875 -0.10936279
-0.14060546 -0.948125 -0.10985839
-0.1470703 -0.95156246 -0.11036377
-0.15361328 -0.9550781 -0.11087158
-0.18035156 -0.9690234 -0.11297119
-0.20103516 -0.97957027 -0.11461181
-0.21509765 -0.9866601 -0.11573974
-0.22230469 -0.99015623 -0.11631347
-0.25154296 -1.0044141 -0.118679196
-0.25902343 -1.0080078 -0.11929199
-0.28187498 -1.0188476 -0.12116211
-0.28968748 -1.0224609 -0.12180176
-0.36304685 -1.0554882 -0.12793213
-0.38902342 -1.0666406 -0.13013427
-0.39783204 -1.0704297 -0.13088867
-0.41578123 -1.0779296 -0.13241944
-0.4622656 -1.0969726 -0.13643798
-0.47177732 -1.1007812 -0.13727051
-0.48152342 -1.1046289 -0.13811767
-0.50124997 -1.1123437 -0.1398413
-0.51124996 -1.1162499 -0.14072509
-0.52134764 -1.1201562 -0.14160888
-0.5315625 -1.124043 -0.14251465
-0.5419531 -1.1279297 -0.14343506
-0.55242187 -1.1318749 -0.14436279
-0.5630078 -1.1358594 -0.14530273
-0.5845117 -1.14375 -0.14722411
-0.6065234 -1.1516992 -0.14919677
0.6499414 0.9227539 -0.1498706
0.6517773 0.9134765 -0.14900634
0.6588672 0.8769336 -0.14564209
0.6604492 0.8679883 -0.1448291
0.66361326 0.8503516 -0.14322509
0.66515625 0.84160155 -0.14243896
0.66666013 0.8328711 -0.14165771
0.6694922 0.8157617 -0.14012939
0.6708789 0.8073047 -0.13937744
0.67478514 0.7822656 -0.13717529
0.6772461 0.76585937 -0.1357495
0.6783594 0.75773436 -0.13504638
0.6795703 0.74972653 -0.13435303
0.68062496 0.74173826 -0.13366944
0.68167967 0.733789 -0.13299072
0.6827539 0.72591794 -0.13232177
0.68470705 0.7103515 -0.13100341
0.6856445 0.7026562 -0.13036132
0.6866015 0.69501954 -0.12971924
0.6874414 0.6874023 -0.12908447
0.6882422 0.6798828 -0.12846191
0.68912107 0.6723828 -0.12783936
0.6899023 0.6649414 -0.127229
0.6906836 0.65753907 -0.1266211
0.69140625 0.65023434 -0.1260254
0.6921289 0.64289063 -0.12543212
0.69347656 0.6285156 -0.124270014
0.6941016 0.62130857 -0.12369873
0.69529295 0.6071875 -0.12257324
0.6958398 0.60021484 -0.1220166
0.69683594 0.58634764 -0.12092529
0.6973242 0.5794531 -0.12039306
0.697832 0.5726172 -0.119860835
0.6990039 0.5524414 -0.11830566
0.6997656 0.5392187 -0.11729736
0.7006445 0.51958984 -0.115822755
0.7008789 0.5132031 -0.115344234
0.7011133 0.50673825 -0.1148706
0.70134765 0.50041014 -0.11439697
0.70167965 0.48779297 -0.113474116
0.7018555 0.4815039 -0.11301514
0.7207226 0.45638672 -0.113273926
0.71617186 0.4473828 -0.11212402
0.70304686 0.42138672 -0.10883301
0.7022656 0.4150781 -0.10831787
0.7020117 0.39767578 -0.10713135
0.70177734 0.38625 -0.10635986
0.70160156 0.3805664 -0.10598144
0.70140624 0.37496093 -0.10560547
0.70123047 0.36929688 -0.10523437
0.7003711 0.34714842 -0.10378906
0.7001367 0.3416797 -0.103435054
0.6997851 0.33621094 -0.10308838
0.6991992 0.3254492 -0.1023999
0.69742185 0.2989453 -0.10075195
0.69705075 0.29375 -0.10043213
0.69662106 0.28855467 -0.10011474
0.69578123 0.27824217 -0.099492185
0.69384766 0.25792968 -0.09828857
0.6922851 0.24289063 -0.09741943
0.69171876 0.23800781 -0.09713867
0.6911914 0.23302734 -0.096853025
0.690625 0.22820312 -0.096577145
0.68884766 0.21359375 -0.09576172
0.6882422 0.20880859 -0.095495604
0.68759763 0.2040039 -0.09523437
0.6863281 0.19451171 -0.09471924
0.68498045 0.18507811 -0.09421142
0.68361324 0.17570312 -0.09371826
0.68066406 0.15726562 -0.092761226
0.6799414 0.15269531 -0.0925293
0.67917967 0.14814453 -0.09229736
0.67839843 0.14365233 -0.09206787
0.67435545 0.12126953 -0.090969235
0.67349607 0.116875 -0.09075928
0.67179686 0.1080664 -0.090344235
0.67003906 0.09939453 -0.089936525
0.6691601 0.095078126 -0.08973633
0.66822267 0.09080078 -0.089538574
0.6673242 0.08650391 -0.0893457
0.6663867 0.08222656 -0.08915283
0.66548824 0.07792968 -0.0889624
0.6645508 0.07375 -0.08877197
0.6635742 0.069472656 -0.08859131
0.66259766 0.065273434 -0.08840332
0.65867186 0.04861328 -0.08769043
0.6576367 0.044511717 -0.08751953
0.6566211 0.04033203 -0.08734619
0.65554684 0.03625 -0.08717773
0.6534961 0.028085938 -0.08684814
0.6524414 0.024042968 -0.08668945
0.6513672 0.02 -0.08652588
0.6425 -0.011816406 -0.085324705
0.6390039 -0.023535157 -0.0848999
0.63779294 -0.02736328 -0.084768064
0.63544923 -0.035117187 -0.08450195
0.6330273 -0.042753905 -0.08424561
0.6317578 -0.04660156 -0.08412109
0.6280469 -0.057968747 -0.08375244
0.62683594 -0.061718747 -0.08363037
0.625625 -0.065449215 -0.083513185
0.6242578 -0.069179684 -0.08339844
1.0257422 -0.12646484 -0.13723633
1.0235742 -0.13257812 -0.13705811
1.0126562 -0.16289063 -0.13618897
1.0036523 -0.18683593 -0.13555664
1.0013477 -0.19277343 -0.13540283
0.999082 -0.19867188 -0.1352539
0.9966992 -0.20457031 -0.13510986
0.9848633 -0.23386718 -0.13441895
0.98249996 -0.23970702 -0.13428955
0.9751953 -0.2569922 -0.13391358
0.9702539 -0.26847655 -0.1336792
0.96777344 -0.27419922 -0.13356689
0.96023434 -0.29125 -0.13323975
0.95511717 -0.30253905 -0.1330371
0.9499023 -0.31375 -0.13284424
0.9447265 -0.32498047 -0.13266113
0.9420898 -0.3305664 -0.13257568
0.9394726 -0.33611327 -0.13248779
0.93683594 -0.34166014 -0.13240722
0.9341015 -0.34714842 -0.13233154
0.93142575 -0.35267577 -0.13225098
0.9232617 -0.36919922 -0.13203369
0.9150195 -0.38554686 -0.13184325
0.91218746 -0.3909961 -0.13178466
0.90654296 -0.40179688 -0.1316748
0.9037109 -0.40724608 -0.13162354
0.89798826 -0.4179492 -0.13152587
0.89511716 -0.42330077 -0.13148682
0.88933593 -0.4340039 -0.1314038
0.88050777 -0.44998047 -0.13130371
0.8715625 -0.46578124 -0.13122314
0.8532226 -0.4972461 -0.13113037
0.8501367 -0.5024414 -0.13112548
0.84703124 -0.5075976 -0.1311206
0.8438672 -0.51279294 -0.1311206
0.83113277 -0.53345704 -0.13113526
0.8278711 -0.5385742 -0.13115235
0.82466793 -0.5436914 -0.13116455
0.8213867 -0.5488086 -0.1311792
0.80824214 -0.56916016 -0.13126709
0.8049023 -0.5742969 -0.13129638
0.8015625 -0.5793164 -0.13132812
0.79818356 -0.5843555 -0.13135986
0.7913867 -0.5944336 -0.13143799
0.78798825 -0.59947264 -0.13147704
0.7810937 -0.6095312 -0.13156737
0.7741406 -0.6195703 -0.13166504
0.76714844 -0.6295117 -0.1317749
0.76003903 -0.63949215 -0.13189453
0.45632812 -0.3935742 -0.08001709
0.4475 -0.40554687 -0.08019287
0.44527343 -0.4085156 -0.08023926
0.44083983 -0.4145117 -0.08033936
0.43623045 -0.4204492 -0.08044677
0.43396485 -0.42333984 -0.08050293
0.43166015 -0.42634764 -0.08055908
0.42935547 -0.42923826 -0.08061767
0.42705077 -0.43222654 -0.080676265
0.42236328 -0.43814453 -0.08080566
0.4199414 -0.44107422 -0.08087158
0.41523436 -0.4469336 -0.08100341
0.41285154 -0.4498828 -0.08107666
0.39328125 -0.47316405 -0.08169678
0.39074218 -0.47607422 -0.081784666
0.3856836 -0.481875 -0.08196045
0.38066405 -0.48763672 -0.08213623
0.3755078 -0.4933789 -0.0823291
0.37289062 -0.49628904 -0.08242431
0.37023437 -0.49910155 -0.082526855
0.3676367 -0.50203127 -0.08262695
0.35703126 -0.51347655 -0.08304443
0.34892577 -0.5221094 -0.08337646
0.34615234 -0.52492183 -0.083491206
0.3434375 -0.52773434 -0.0836084
0.340625 -0.53058594 -0.08372802
0.33783203 -0.5334375 -0.08385009
0.3266211 -0.54484373 -0.08434814
0.32375 -0.5476758 -0.08447754
0.31515625 -0.55615234 -0.08487549
0.30929688 -0.56177735 -0.0851538
0.30632812 -0.56460935 -0.08529541
0.30335936 -0.5674414 -0.085441895
0.30035156 -0.57023436 -0.08558838
0.29439452 -0.5758984 -0.085881345
0.29132813 -0.5787109 -0.08603271
0.27910155 -0.58990234 -0.08665771
0.27597657 -0.59273434 -0.086818844
0.27285156 -0.59552735 -0.08698242
0.26015624 -0.60673827 -0.08766357
0.25689453 -0.6095312 -0.08783447
0.2504492 -0.61509764 -0.08819091
0.2471289 -0.6178906 -0.08837402
0.24388671 -0.6207031 -0.088557124
0.23384765 -0.6290625 -0.08911865
0.2168164 -0.6430078 -0.090104975
0.21339843 -0.6457617 -0.09031006
0.20988281 -0.6485547 -0.09051514
0.20285156 -0.654082 -0.090932615
0.1993164 -0.65685546 -0.09114746
0.19574219 -0.65962887 -0.09136474
0.19214843 -0.66240233 -0.091584474
0.18128906 -0.6707031 -0.0922583
0.17386718 -0.67625 -0.092719726
0.17013672 -0.6790039 -0.0929541
0.16261718 -0.6845117 -0.09343261
0.15882812 -0.6873047 -0.09367432
0.15503906 -0.6900586 -0.09391846
0.14730468 -0.69560546 -0.09442139
0.14345703 -0.69837886 -0.09467041
0.13560547 -0.7038672 -0.095187984
0.12767577 -0.7093945 -0.09571533
0.12359375 -0.71218747 -0.095983885
0.10066406 -0.7409375 -0.09928955
0.093164064 -0.7550195 -0.101022944
0.08927734 -0.7622656 -0.1019165
0.08539062 -0.76960933 -0.10283203
0.07736328 -0.78478515 -0.10471679
0.06908203 -0.7480078 -0.09974853
0.06466797 -0.7507031 -0.10006103
0.0603125 -0.7535156 -0.10037597
0.051386718 -0.75896484 -0.10101806
0.028535156 -0.77273434 -0.102683105
0.014394531 -0.7809961 -0.10372558
5.859375e-05 -0.7892383 -0.10480224
-0.004824219 -0.79197264 -0.105168454
-0.009726563 -0.794707 -0.105539545
-0.014628906 -0.79748046 -0.10591797
-0.019589843 -0.8002148 -0.10629638
-0.02455078 -0.80296874 -0.106674805
-0.034707032 -0.808457 -0.107453614
-0.039785154 -0.8111718 -0.10785156
-0.044921875 -0.8138867 -0.10824951
-0.060585935 -0.82220703 -0.109472655
-0.06591797 -0.8249023 -0.10989013
-0.09294922 -0.8386328 -0.112048335
-0.1096875 -0.84681636 -0.11339111
-0.11537109 -0.8495898 -0.113850094
-0.13839844 -0.8605078 -0.11573974
-0.15019532 -0.865957 -0.1167163
-0.15617187 -0.86871094 -0.11720947
-0.18054686 -0.87964845 -0.1192456
-0.1867578 -0.8824023 -0.11977295
-0.20570312 -0.8905664 -0.12137451
-0.21208984 -0.8932812 -0.12192138
-0.21853516 -0.89603513 -0.1224707
-0.23162109 -0.9014648 -0.12359619
-0.24496093 -0.9068945 -0.12474609
-0.2516797 -0.9095703 -0.12532958
-0.25843748 -0.91236323 -0.12591797
-0.2791992 -0.9205078 -0.1277368
-0.30042967 -0.92861325 -0.12960693
-0.30759764 -0.9313281 -0.13024658
-0.32220703 -0.93673825 -0.13154541
-0.32960936 -0.93939453 -0.13220459
-0.3445703 -0.94480467 -0.1335498
-0.35214844 -0.94753903 -0.13423584
-0.36751953 -0.9528906 -0.13562499
-0.39109373 -0.96097654 -0.137771
-0.40716797 -0.96634763 -0.1392456
-0.43185547 -0.97437495 -0.14152099
-0.44021484 -0.9769531 -0.14230224
-0.4486328 -0.97966796 -0.14308594
-0.5010742 -0.99546874 -0.14800048
-0.5101172 -0.99816406 -0.14885741
-0.5191992 -1.0007617 -0.14971924
0.5836328 0.7869336 -0.1479834
0.58552736 0.7793945 -0.14724365
0.58734375 0.77193356 -0.14651123
0.5891797 0.76455075 -0.14578614
0.5942773 0.7425195 -0.14365233
0.59916013 0.72097653 -0.14158936
0.60216796 0.70677733 -0.14024659
0.6091797 0.6720898 -0.13701172
0.61052734 0.66531247 -0.13638672
0.61179686 0.6585351 -0.13576415
0.61302733 0.65181637 -0.1351538
0.61423826 0.64511716 -0.13454345
0.61541015 0.63841796 -0.13394287
0.6166015 0.6318945 -0.13334717
0.61880857 0.61875 -0.13217773
0.61992186 0.61228514 -0.13159911
0.6208789 0.60580075 -0.13102783
0.6247461 0.5803711 -0.12880127
0.6265429 0.567832 -0.12772216
0.6273828 0.5616602 -0.12718749
0.6298047 0.54322267 -0.12562256
0.6305273 0.53712887 -0.12511474
0.6319727 0.52511716 -0.124111325
0.63390625 0.5073437 -0.12263916
0.6351172 0.49560547 -0.12168213
0.63673824 0.4783203 -0.12028076
0.6376953 0.4668945 -0.119372554
0.638125 0.46123046 -0.118923336
0.6385742 0.455625 -0.118483886
0.6397656 0.43886718 -0.11717773
0.6400781 0.43335935 -0.11675293
0.64039063 0.42791015 -0.116335444
0.6410156 0.4170117 -0.11550049
0.6412695 0.41158202 -0.11509521
0.6419531 0.39554685 -0.11388916
0.6421289 0.3902539 -0.11349853
0.6423242 0.38496092 -0.11310547
0.6424414 0.37974608 -0.112727046
0.64261717 0.37451172 -0.11234131
0.6428125 0.36416015 -0.11159424
0.6768359 0.37251952 -0.116691895
0.66578126 0.35062498 -0.113654785
0.662207 0.34359375 -0.11268798
0.6485937 0.31654295 -0.109011225
0.6453125 0.31009763 -0.108142085
0.6426367 0.29914063 -0.10706299
0.6425 0.2943164 -0.10674072
0.6422266 0.2846289 -0.10610107
0.64205074 0.27990234 -0.105783686
0.6416406 0.27041015 -0.105168454
0.63980466 0.23781249 -0.10310058
0.63947266 0.23328124 -0.10281494
0.6391992 0.2286914 -0.10253174
0.6388672 0.22416015 -0.102258295
0.6376953 0.21070312 -0.101442866
0.63730466 0.20623046 -0.10117432
0.63646483 0.19734375 -0.10064941
0.6351367 0.18417968 -0.099885255
0.6331836 0.16687499 -0.09889404
0.63267577 0.16263671 -0.098654784
0.63208985 0.15833984 -0.09842529
0.631582 0.15408203 -0.09818603
0.6310156 0.14986327 -0.09795654
0.6298828 0.14144531 -0.09749756
0.6280273 0.1289453 -0.0968335
0.6274023 0.12480468 -0.09661865
0.62679684 0.12068359 -0.09640381
0.6254297 0.11246093 -0.095979005
0.6247461 0.108417965 -0.09577392
0.6241015 0.104335934 -0.09556641
0.62046874 0.08425781 -0.09457275
0.619707 0.080332026 -0.09438232
0.61742187 0.06847656 -0.09382568
0.6150195 0.056796875 -0.09328369
0.61333984 0.049042966 -0.09293213
0.61080074 0.03753906 -0.092421874
0.6099023 0.033749998 -0.09225586
0.608125 0.026152343 -0.09193115
0.607207 0.022382813 -0.0917749
0.606289 0.018671874 -0.09161377
0.60535157 0.014882812 -0.091457516
0.60441405 0.011152344 -0.09130615
0.6034961 0.007441406 -0.091149904
0.60255855 0.0036914062 -0.091005854
0.601582 -0.0 -0.09085693
0.59759766 -0.014628906 -0.090285644
0.5965625 -0.018300781 -0.09014404
0.59558594 -0.021933593 -0.09001221
0.59453124 -0.025507811 -0.08988037
0.59351563 -0.029101562 -0.08974365
0.5924219 -0.032695312 -0.08961426
0.58921874 -0.043378904 -0.0892334
0.58703125 -0.05050781 -0.088991694
0.58480465 -0.057578124 -0.08875244
0.582539 -0.06458984 -0.08852295
0.5813867 -0.06808594 -0.088410646
0.5802539 -0.07158203 -0.088298336
0.579082 -0.07501953 -0.08819336
0.57789063 -0.07845703 -0.08808838
0.5766992 -0.08191406 -0.08797851
0.5755273 -0.085351564 -0.08787841
0.57433593 -0.08875 -0.08777588
0.57310545 -0.092167966 -0.087673336
0.5706836 -0.0990039 -0.08748046
0.5694141 -0.10242187 -0.08738525
0.565625 -0.11248047 -0.087111816
0.5605078 -0.12582031 -0.08677002
0.5552539 -0.1390625 -0.08644775
0.5511914 -0.14888671 -0.08622803
0.5498242 -0.15208983 -0.08615967
0.5470508 -0.15859374 -0.08602783
0.5456445 -0.16185546 -0.08595947
0.54423827 -0.16505858 -0.08589599
0.54281247 -0.16826172 -0.08583496
0.5414062 -0.17146485 -0.08577637
0.5385351 -0.17785156 -0.08565674
0.53261715 -0.19054687 -0.085446775
0.5311914 -0.1936914 -0.085397944
0.52968746 -0.19683594 -0.08534912
0.5266797 -0.203125 -0.085251465
0.5251367 -0.20621093 -0.08520996
0.52357423 -0.20935546 -0.085170895
0.5220703 -0.21246094 -0.08513183
0.5189258 -0.21859375 -0.08505615
0.51740235 -0.22171874 -0.08501953
0.5158008 -0.22482422 -0.08498535
0.51421875 -0.22787109 -0.08495361
0.50943357 -0.23703125 -0.08486572
0.50453126 -0.24617188 -0.08478759
0.502832 -0.24921875 -0.084768064
0.5012109 -0.25224608 -0.08474365
0.49953124 -0.2552539 -0.08472656
0.49781248 -0.2582617 -0.08470947
0.49615234 -0.26123047 -0.084694825
0.4944531 -0.26425782 -0.08468018
0.48755857 -0.27617186 -0.08463623
0.4841406 -0.28208983 -0.08462402
0.47880858 -0.29091796 -0.0846167
0.47335938 -0.2996875 -0.08462158
0.47152343 -0.30265623 -0.084626466
0.469707 -0.30552733 -0.08463623
0.46785155 -0.30845702 -0.084645994
0.46603516 -0.31136718 -0.08465332
0.46230468 -0.3171289 -0.08467529
0.4585547 -0.3228906 -0.08470947
0.45669922 -0.3257617 -0.08471923
0.4528125 -0.33148438 -0.084763184
0.4508789 -0.334375 -0.08478759
0.44505858 -0.34291014 -0.084858395
0.44308594 -0.34572265 -0.08488769
0.44111326 -0.34857422 -0.08491211
0.43910155 -0.35134766 -0.084948726
0.4351172 -0.35705078 -0.08500976
0.433125 -0.35984373 -0.08504639
0.42285156 -0.3738281 -0.08524658
0.4186914 -0.37941405 -0.08533447
0.41236326 -0.38773435 -0.08548584
0.40371093 -0.3986914 -0.08571045
0.39935547 -0.40421873 -0.08582275
0.3949414 -0.4096875 -0.085949704
0.38822263 -0.4178125 -0.0861499
0.38140625 -0.42595702 -0.0863623
0.37449217 -0.43408203 -0.08659424
0.36746094 -0.44208983 -0.08683838
0.36273438 -0.44748047 -0.08700684
0.35792968 -0.4528125 -0.087185055
0.34822264 -0.46345702 -0.08756103
0.3433203 -0.46876952 -0.08775634
0.31779295 -0.49498045 -0.088850096
0.31515625 -0.49759763 -0.088967286
0.31253904 -0.5002148 -0.08908936
0.30455077 -0.5080078 -0.08946533
0.28539062 -0.52607423 -0.09040283
0.2826367 -0.5286328 -0.09054443
0.27978516 -0.5311914 -0.09068603
0.27412108 -0.5363086 -0.090981446
0.26841795 -0.5414062 -0.0912793
0.26552734 -0.54392576 -0.0914331
0.2568164 -0.55158204 -0.09190185
0.2508789 -0.5566406 -0.092229
0.24791016 -0.55917966 -0.092395015
0.24191406 -0.56417966 -0.09273193
0.23585936 -0.56923825 -0.09307861
0.23283203 -0.57179683 -0.09324951
0.22664063 -0.5768164 -0.09361084
0.22044921 -0.5818359 -0.09397217
0.21722656 -0.58427733 -0.0941626
0.21410155 -0.5867969 -0.09435303
0.2109375 -0.5892578 -0.09454346
0.20447265 -0.5942773 -0.09493408
0.20128906 -0.5967969 -0.09512939
0.1980078 -0.5992383 -0.09532959
0.19476563 -0.6017383 -0.09553467
0.19146484 -0.6042187 -0.095739745
0.18482421 -0.60914063 -0.09615234
0.17476562 -0.61652344 -0.096794434
0.17138672 -0.61896485 -0.09701416
0.15234375 -0.6413086 -0.09956787
0.14650391 -0.6522656 -0.10098389
0.1434961 -0.6578516 -0.10170654
0.14052734 -0.66355467 -0.10244873
0.1374414 -0.66923827 -0.103208005
0.13117187 -0.6810742 -0.10476807
0.117968746 -0.65548825 -0.100605465
0.07962891 -0.6794336 -0.1033374
0.07564453 -0.68183595 -0.10362305
0.071718745 -0.68421876 -0.103913575
0.06363281 -0.6888867 -0.10450927
0.05142578 -0.6960547 -0.10542236
0.04724609 -0.6983594 -0.10573242
0.030468749 -0.70773435 -0.10700683
0.021933593 -0.71240234 -0.10766357
0.017617187 -0.7147656 -0.10800049
0.013242187 -0.71708983 -0.1083374
0.00890625 -0.71941406 -0.10867432
0.004472656 -0.7216992 -0.10901611
7.8125e-05 -0.7240039 -0.10936523
-0.0044140625 -0.7263086 -0.10971924
-0.008867187 -0.72861326 -0.110070795
-0.027109375 -0.737832 -0.11152588
-0.03173828 -0.7401172 -0.11189697
-0.03640625 -0.7423828 -0.11227539
-0.041093748 -0.74466795 -0.11265625
-0.04582031 -0.746914 -0.113039546
-0.050546873 -0.74923825 -0.11343017
-0.0699414 -0.7582031 -0.11502441
-0.07484375 -0.7604883 -0.11543213
-0.07982422 -0.7626953 -0.11584228
-0.09996094 -0.77160156 -0.11753174
-0.10503906 -0.77384764 -0.11796631
-0.110214844 -0.7760547 -0.11840088
-0.11537109 -0.7782617 -0.11884765
-0.1258789 -0.78267574 -0.11974609
-0.14189453 -0.7892578 -0.12113037
-0.14730468 -0.7914062 -0.121594235
-0.16375 -0.7978906 -0.12303466
-0.16927734 -0.80003905 -0.12352783
-0.17492187 -0.80216795 -0.12402344
-0.18623047 -0.80642575 -0.12502685
-0.1977539 -0.81068355 -0.12605225
-0.20353515 -0.8128125 -0.12656982
-0.21527344 -0.8170117 -0.12762451
-0.22121093 -0.819082 -0.12816405
-0.22720702 -0.8212305 -0.12870361
-0.23320311 -0.8232422 -0.12925048
-0.23927733 -0.8253125 -0.12980224
-0.24539062 -0.82736325 -0.13036376
-0.2515625 -0.8294531 -0.13092528
-0.2577539 -0.8315234 -0.13149658
-0.2895117 -0.84160155 -0.13444091
-0.29595703 -0.84361327 -0.13504638
-0.30912107 -0.8475781 -0.13627686
-0.33597654 -0.85537106 -0.1388208
-0.34277344 -0.8572656 -0.1394702
-0.3496875 -0.8592187 -0.14012939
-0.37070313 -0.8649023 -0.14215088
-0.38496092 -0.86865234 -0.14352784
-0.39226562 -0.87056637 -0.14423095
-0.39953125 -0.8723828 -0.1449414
-0.40685546 -0.8741992 -0.14565673
-0.41427734 -0.87605464 -0.14638427
-0.42927733 -0.8796289 -0.147854
-0.4445117 -0.8832031 -0.1493579
0.52271485 0.7138672 -0.14988036
0.524668 0.70742184 -0.1492041
0.5285547 0.69460934 -0.14786376
0.5303906 0.6883008 -0.14720947
0.53228515 0.6819726 -0.14655028
0.53759766 0.66328126 -0.14463134
0.5409765 0.6508984 -0.14337645
0.54423827 0.6387109 -0.14215088
0.5473633 0.62667966 -0.14094727
0.5488867 0.62066406 -0.14035156
0.55029297 0.614707 -0.13976562
0.55179685 0.60875 -0.13918212
0.5545898 0.59697264 -0.13803467
0.55728513 0.58529294 -0.13691162
0.5623828 0.5623437 -0.13471924
0.56353515 0.5566211 -0.13418457
0.5658594 0.54537106 -0.13312744
0.56804687 0.5341797 -0.13209228
0.5691016 0.52867186 -0.13158447
0.5701562 0.52310544 -0.1310791
0.5711328 0.51761717 -0.13057616
0.574043 0.5012695 -0.129104
0.5758398 0.49054685 -0.12814698
0.577539 0.47986326 -0.12720458
0.5783984 0.47458982 -0.12674072
0.5791406 0.46935546 -0.12628174
0.5806836 0.45886716 -0.12537353
0.58208984 0.44849607 -0.12447998
0.58273435 0.44335938 -0.12404541
0.584082 0.4331445 -0.12317627
0.5846875 0.42802733 -0.12275146
0.5858398 0.41798827 -0.1219165
0.58697265 0.40798828 -0.121091306
0.58746094 0.4030078 -0.12068115
0.5888672 0.3882617 -0.1194873
0.58931637 0.3833789 -0.11909424
0.59046876 0.36884764 -0.11794189
0.59085935 0.36404297 -0.117565915
0.59181637 0.34978515 -0.116452634
0.59208983 0.3450586 -0.11609375
0.59236324 0.34033203 -0.11572998
0.5928515 0.33103514 -0.11502441
0.593125 0.32642576 -0.11467285
0.5934375 0.31722656 -0.11398681
0.5935937 0.31259766 -0.1136499
0.5939062 0.3035156 -0.112980954
0.5940234 0.29898438 -0.11264893
0.59410155 0.29447263 -0.11232177
0.59416014 0.29 -0.11199951
0.59431636 0.27664062 -0.11104736
0.61636716 0.2553125 -0.11301514
0.6081055 0.23886718 -0.11067382
0.60542965 0.23355468 -0.10991943
0.6027539 0.22830078 -0.10918213
0.60009766 0.22310546 -0.10845947
0.59753907 0.21798828 -0.107744135
0.5949609 0.21296875 -0.10705322
0.5927929 0.20802733 -0.10641845
0.59261715 0.20390624 -0.10615722
0.59234375 0.19974609 -0.10589355
0.591582 0.18744141 -0.10511962
0.5909961 0.17923827 -0.104616694
0.5903711 0.17123047 -0.10412353
0.59005857 0.16714844 -0.10387939
0.5896484 0.16318358 -0.10364013
0.5885547 0.15126953 -0.10293945
0.58816403 0.14732422 -0.10270996
0.58773434 0.1433789 -0.10248046
0.5872656 0.13949218 -0.102258295
0.58687496 0.13558593 -0.10203369
0.58449215 0.11625 -0.100954585
0.58404297 0.11242187 -0.10074463
0.5829101 0.10488281 -0.10033447
0.58246094 0.10105468 -0.100129396
0.5818555 0.09728515 -0.099931635
0.58128905 0.09351562 -0.09973388
0.58066404 0.08978515 -0.09953857
0.58011717 0.08605468 -0.0993457
0.57890624 0.078593746 -0.09896484
0.5782812 0.074941404 -0.098776855
0.57767576 0.07126953 -0.09859619
0.575039 0.056660157 -0.09787353
0.57433593 0.05300781 -0.09769775
0.5736133 0.04941406 -0.097526856
0.57220703 0.042265624 -0.09718505
0.56996095 0.031503905 -0.09669189
0.5691992 0.02796875 -0.096535645
0.5675976 0.020917969 -0.096223146
0.56689453 0.017460937 -0.09606689
0.5660547 0.013945312 -0.095915526
0.564375 0.0069335937 -0.09561523
0.56359375 0.0034960937 -0.095468745
0.561875 -0.0033984375 -0.095178224
0.5610156 -0.006894531 -0.09503906
0.55921876 -0.013691406 -0.09476074
0.5583789 -0.017109375 -0.094626464
0.55748045 -0.02048828 -0.094494626
0.55654293 -0.023867186 -0.09436035
0.55562496 -0.027285155 -0.09422851
0.55183595 -0.040664062 -0.09372803
0.5508594 -0.044023436 -0.093608394
0.54787105 -0.05392578 -0.093254395
0.54583985 -0.06046875 -0.09302978
0.54376954 -0.06707031 -0.09281006
0.54058594 -0.076796874 -0.09249268
0.5395508 -0.08003906 -0.09238769
0.53734374 -0.086464845 -0.09219238
0.53625 -0.089628905 -0.09209228
0.53509766 -0.0928125 -0.09200195
0.53398436 -0.09603515 -0.091906734
0.53287107 -0.09916016 -0.09181396
0.53058594 -0.10552734 -0.09163574
0.529375 -0.10863281 -0.09155029
0.5282422 -0.11177734 -0.09146728
0.5270703 -0.11490234 -0.09138183
0.5258789 -0.11804687 -0.091298826
0.5234961 -0.124296874 -0.091140136
0.52224606 -0.12736328 -0.09106201
0.5197656 -0.13353515 -0.09091552
0.5185547 -0.13667968 -0.0908374
0.51730466 -0.13974608 -0.0907666
0.5147656 -0.14580078 -0.09063232
0.5108789 -0.15494141 -0.09043701
0.5096289 -0.15796874 -0.09037353
0.50828123 -0.16101561 -0.09031738
0.50699216 -0.16398437 -0.090258785
0.5056445 -0.16697265 -0.09020264
0.50427735 -0.17 -0.09014404
0.5029297 -0.17294921 -0.090095215
0.5002148 -0.17892578 -0.08998779
0.49460936 -0.19076172 -0.08980224
0.4874414 -0.20537108 -0.08960449
0.4845117 -0.2111914 -0.08953369
0.47855467 -0.22271484 -0.089416504
0.47705078 -0.22558594 -0.08938721
0.47552735 -0.22841796 -0.08936523
0.47400388 -0.23132811 -0.08934326
0.47240233 -0.23414062 -0.08931885
0.46929687 -0.23978515 -0.089284666
0.4645703 -0.24830078 -0.089230955
0.4630078 -0.25111327 -0.08922119
0.45978513 -0.25667968 -0.08920166
0.458125 -0.25947264 -0.08919189
0.4532031 -0.2678125 -0.08917724
0.45154297 -0.27054688 -0.08917236
0.44986328 -0.27339843 -0.08917236
0.44816405 -0.2760742 -0.08917724
0.44646484 -0.27884766 -0.0891748
0.44478515 -0.2816211 -0.08917724
0.4430664 -0.28435546 -0.08918212
0.43960938 -0.28982422 -0.08919678
0.43617186 -0.29521483 -0.08921631
0.43435547 -0.29798827 -0.089230955
0.43257812 -0.30066407 -0.0892456
0.43082032 -0.30335936 -0.08926025
0.42720702 -0.30873045 -0.08929443
0.42546874 -0.31140625 -0.08931396
0.4218164 -0.31677735 -0.089357905
0.41996092 -0.31945312 -0.089384764
0.41628906 -0.32478514 -0.08943603
0.4125 -0.33007812 -0.08949951
0.40875 -0.33541015 -0.08956299
0.4068164 -0.3379883 -0.089597166
0.40105468 -0.3458789 -0.08971191
0.39908203 -0.34849608 -0.08975342
0.3951953 -0.35367188 -0.089841306
0.38921875 -0.36146483 -0.089978024
0.38722655 -0.3640625 -0.090031736
0.3749414 -0.37947264 -0.09036621
0.37283203 -0.3820117 -0.09042724
0.3686328 -0.38714844 -0.0905542
0.3665234 -0.3896289 -0.09062256
0.36439452 -0.39220703 -0.09068603
0.36011717 -0.39722654 -0.09082519
0.35792968 -0.3997461 -0.090900876
0.35578123 -0.4022656 -0.090969235
0.35136718 -0.40730467 -0.09112549
0.34921876 -0.40978515 -0.09120361
0.34248045 -0.41728514 -0.09144775
0.3402539 -0.41974607 -0.09153564
0.33574218 -0.42470703 -0.091711424
0.33341795 -0.4271875 -0.091796875
0.33115235 -0.42960936 -0.091892086
0.3241992 -0.43701172 -0.09217529
0.3194922 -0.44189453 -0.09237304
0.31234375 -0.4491992 -0.09268311
0.3026367 -0.45892578 -0.09312256
0.29771483 -0.46369138 -0.09334717
0.2952539 -0.46611327 -0.09346435
0.29271483 -0.46847656 -0.09358642
0.29019532 -0.47091797 -0.09370849
0.26708984 -0.4922461 -0.09487305
0.26441404 -0.49460936 -0.0950122
0.26177734 -0.49697265 -0.09515381
0.2591406 -0.49929687 -0.095300294
0.25644532 -0.5016406 -0.09544189
0.25375 -0.5040039 -0.09558838
0.24830078 -0.5086133 -0.09589111
0.24558593 -0.51097655 -0.09604004
0.22605468 -0.5271094 -0.097160645
0.22314453 -0.52941406 -0.09732666
0.22029297 -0.5316797 -0.09749756
0.21740234 -0.53398436 -0.09766601
0.21160156 -0.5385156 -0.09802002
0.20865233 -0.54078126 -0.0981958
0.20572264 -0.5430664 -0.09838135
0.20027344 -0.54904294 -0.09901123
0.19804688 -0.5533008 -0.09956299
0.19103515 -0.56642574 -0.10127685
0.1861914 -0.5754297 -0.10246826
0.18374999 -0.580039 -0.10307861
0.18132812 -0.58464843 -0.10370117
0.17371093 -0.59882814 -0.10564697
0.17109375 -0.60371095 -0.106318355
0.15960938 -0.576543 -0.10134033
0.15316406 -0.5808789 -0.1017749
0.14007813 -0.5896094 -0.10266846
0.13341796 -0.5939258 -0.10312744
0.13007812 -0.5960937 -0.103366695
0.12669921 -0.59824216 -0.10360107
0.123300776 -0.6004492 -0.10384033
0.119960934 -0.60253906 -0.10408447
0.116484374 -0.60466796 -0.10432861
0.10957031 -0.6089453 -0.10482177
0.10609375 -0.6110742 -0.10507568
0.10255859 -0.6132031 -0.10532959
0.09550781 -0.61742187 -0.105847165
0.08835937 -0.6216406 -0.10637695
0.08476562 -0.6237305 -0.106643066
0.08117187 -0.6258203 -0.10691162
0.07746094 -0.62791014 -0.10718506
0.06273437 -0.6362109 -0.10830566
0.05892578 -0.6382617 -0.10859375
0.05142578 -0.64236325 -0.10917236
0.04375 -0.6464453 -0.10977051
0.03986328 -0.64847654 -0.11007568
0.028164063 -0.6545508 -0.11099365
0.008222656 -0.66453123 -0.11259033
0.004140625 -0.6664648 -0.11292236
-0.0040625 -0.67042965 -0.113591306
-0.008183594 -0.6724023 -0.11392822
-0.02080078 -0.67828125 -0.11496582
-0.029277343 -0.6821484 -0.11567138
-0.037812497 -0.68593746 -0.11638672
-0.0465625 -0.6897461 -0.117126465
-0.05097656 -0.69166017 -0.117497556
-0.055390622 -0.6935742 -0.117873535
-0.05984375 -0.69541013 -0.11825927
-0.07792968 -0.7028711 -0.11981201
-0.08251953 -0.704707 -0.120209955
-0.10113281 -0.71203125 -0.121843256
-0.10585937 -0.7138281 -0.12226074
-0.110585935 -0.71560544 -0.122680664
-0.12505859 -0.72095704 -0.12396728
-0.12992187 -0.7227539 -0.12440673
-0.13484375 -0.7244922 -0.12485107
-0.13972656 -0.72623044 -0.12529053
-0.15982422 -0.7331055 -0.12712158
-0.17007813 -0.73652345 -0.12806152
-0.17529297 -0.73818356 -0.12854248
-0.19095702 -0.74316406 -0.12999511
-0.20158203 -0.7464453 -0.13098876
-0.21236327 -0.7496484 -0.1320044
-0.21777344 -0.7512305 -0.13251708
-0.22330077 -0.752832 -0.13303466
-0.22876953 -0.754414 -0.13356201
-0.25121093 -0.76060545 -0.13570556
-0.25695312 -0.76210934 -0.13625732
-0.27427733 -0.76660156 -0.13793457
-0.28009766 -0.76804686 -0.1385083
-0.29189453 -0.7709375 -0.13966064
-0.2978906 -0.7723828 -0.14024901
-0.3038867 -0.77378905 -0.14084229
-0.30992186 -0.77517575 -0.14144287
-0.32218748 -0.7779492 -0.14265381
-0.32833984 -0.7792969 -0.14326905
-0.33457032 -0.780625 -0.1438916
-0.34083983 -0.78197265 -0.14451905
-0.34714842 -0.7832617 -0.1451538
-0.35990232 -0.78585935 -0.14644043
-0.38589844 -0.7908203 -0.14908446
0.4782617 0.63662106 -0.1495874
0.4801953 0.6310742 -0.14897704
0.48578125 0.6145703 -0.14718261
0.48759764 0.6091992 -0.14659424
0.4911328 0.59839845 -0.14543213
0.49285156 0.59302735 -0.14486083
0.4945117 0.58767575 -0.14429443
0.49617186 0.58228517 -0.14372802
0.49941406 0.57173824 -0.14261962
0.5054883 0.5508594 -0.14045654
0.5069141 0.54568356 -0.13992432
0.5083398 0.54052734 -0.13939941
0.5111328 0.53023434 -0.1383667
0.5125 0.52515626 -0.137854
0.5137695 0.5200977 -0.13734864
0.5150586 0.5150586 -0.13684814
0.5163281 0.51001954 -0.1363501
0.52 0.49501953 -0.13488036
0.5211523 0.49007812 -0.13440186
0.52453125 0.47533202 -0.13298583
0.52554685 0.4705078 -0.13252197
0.53148437 0.4416211 -0.12982178
0.5323828 0.436875 -0.12938476
0.536582 0.41347656 -0.12726317
0.5373633 0.4088281 -0.12685059
0.5388476 0.39964843 -0.12603271
0.5395703 0.39503905 -0.12563232
0.5402734 0.3904492 -0.12523194
0.54095703 0.38595703 -0.12483642
0.54160154 0.38140625 -0.124445796
0.5422461 0.37687498 -0.12405517
0.5434375 0.36791015 -0.12329345
0.54402345 0.3634375 -0.12291259
0.5445312 0.3590039 -0.12253906
0.54609376 0.34583983 -0.121435545
0.54660153 0.34142578 -0.12107178
0.5470898 0.33710936 -0.12071533
0.5475 0.33273438 -0.120358884
0.54830074 0.32404298 -0.11966064
0.54871094 0.31980467 -0.11931641
0.5501172 0.3027539 -0.11796142
0.5503906 0.2985742 -0.117634274
0.5516797 0.27767578 -0.11602783
0.55205077 0.2694531 -0.11540283
0.5523437 0.26123047 -0.11479492
0.5528711 0.24505858 -0.113605954
0.5528906 0.24105468 -0.11331787
0.5529883 0.2370703 -0.113029785
0.5531055 0.23302734 -0.11274414
0.5531055 0.22513671 -0.11218505
0.5530859 0.21728516 -0.11163574
0.55302733 0.20943359 -0.11109619
0.5530078 0.20552734 -0.110830076
0.5528711 0.20167968 -0.11056396
0.5527734 0.19396484 -0.1100415
0.55265623 0.19011718 -0.1097876
0.55248046 0.18628906 -0.10953369
0.5523437 0.18248047 -0.10928467
0.58125 0.18810546 -0.11478516
0.57433593 0.17423828 -0.11275146
0.5720703 0.16972657 -0.11209472
0.56322265 0.15214844 -0.10959717
0.56105465 0.14787109 -0.10899902
0.5588867 0.14367187 -0.108413085
0.5505859 0.12722656 -0.10616943
0.5485742 0.12320312 -0.10562744
0.5480664 0.11957031 -0.105375975
0.5476758 0.11595703 -0.105168454
0.5447656 0.09111328 -0.1037622
0.543789 0.0840625 -0.10338134
0.5433203 0.08060547 -0.103190914
0.54234374 0.073691405 -0.10282227
0.5418164 0.07023437 -0.10263916
0.5413476 0.06677734 -0.10245849
0.54015625 0.059882812 -0.10210693
0.5396289 0.056503907 -0.10193115
0.539082 0.053124998 -0.10176025
0.5384961 0.049746092 -0.10158935
0.53666013 0.039609373 -0.10109375
0.5359961 0.03625 -0.10092529
0.53541017 0.032910157 -0.1007666
0.53472656 0.029570311 -0.10061279
0.53341794 0.022949219 -0.10030029
0.53271484 0.019648436 -0.10014892
0.530625 0.009785156 -0.099699706
0.5298633 0.0065429686 -0.099555664
0.52839845 -0.0 -0.099270016
0.52691406 -0.006425781 -0.0989917
0.5253125 -0.012890625 -0.0987207
0.52453125 -0.016074218 -0.098591305
0.52373046 -0.019277344 -0.09845703
0.52292967 -0.022421874 -0.09832764
0.51953125 -0.035097655 -0.09783203
0.5186719 -0.038242187 -0.0977124
0.5151953 -0.05068359 -0.09724853
0.51242185 -0.059980467 -0.09691162
0.5113672 -0.063027345 -0.09680908
0.5104883 -0.06613281 -0.09670166
0.5085156 -0.07222656 -0.09649658
0.5075976 -0.07529297 -0.09639893
0.5066016 -0.07830078 -0.09629883
0.5035547 -0.087343745 -0.09601318
0.5025586 -0.09033203 -0.09592041
0.50146484 -0.09330078 -0.09583252
0.50041014 -0.096328124 -0.09574219
0.49943358 -0.09933594 -0.09565185
0.49617186 -0.10816406 -0.09540527
0.49503905 -0.11113281 -0.0953247
0.49398437 -0.11408203 -0.09524414
0.49283203 -0.11703125 -0.09516846
0.49173826 -0.11992187 -0.09509033
0.49060544 -0.12285156 -0.09501709
0.4894531 -0.12578125 -0.094943844
0.48833984 -0.12867187 -0.09487305
0.48718747 -0.13154297 -0.09480468
0.48246092 -0.1430664 -0.09453857
0.48005858 -0.14880858 -0.0944165
0.47880858 -0.15164062 -0.09435791
0.47636718 -0.15728515 -0.09424804
0.47384766 -0.16296874 -0.09413818
0.4713281 -0.16861328 -0.09403564
0.46873045 -0.17417969 -0.093942866
0.4674414 -0.17699218 -0.09389404
0.4648242 -0.18253906 -0.093811035
0.46341795 -0.18533203 -0.09376953
0.46214843 -0.18806641 -0.09372803
0.4607617 -0.19078125 -0.093693845
0.4594336 -0.19355468 -0.09365967
0.45802733 -0.19630858 -0.093620606
0.45529297 -0.2018164 -0.09355957
0.45251954 -0.20720702 -0.093498535
0.45109373 -0.20990235 -0.09346924
0.44970703 -0.21263671 -0.093444824
0.44820312 -0.2153125 -0.09342041
0.44679686 -0.21802734 -0.09340087
0.44242185 -0.22607422 -0.0933374
0.4409375 -0.22871093 -0.09332031
0.43492186 -0.23935546 -0.09326904
0.4334375 -0.24195312 -0.09325683
0.42251953 -0.26029298 -0.09322998
0.4193164 -0.26546875 -0.0932373
0.41445312 -0.2732031 -0.093254395
0.41277343 -0.27574217 -0.0932666
0.40445313 -0.28853515 -0.093332514
0.4010156 -0.2935742 -0.09337402
0.3975586 -0.2986328 -0.09342041
0.39410156 -0.30361328 -0.09346435
0.39236328 -0.30611327 -0.09349365
0.3869922 -0.31357422 -0.09358154
0.3816406 -0.32103515 -0.09368652
0.37796873 -0.32591796 -0.09376465
0.37609375 -0.32835937 -0.09380615
0.37427732 -0.3308203 -0.09384521
0.3685742 -0.338125 -0.09398193
0.36673826 -0.340625 -0.09402832
0.36478513 -0.3430078 -0.09407959
0.3609375 -0.34785154 -0.094182126
0.35904297 -0.35029295 -0.09423828
0.35515624 -0.35503906 -0.09434814
0.35314453 -0.35746092 -0.09440674
0.35121092 -0.3598047 -0.094467774
0.34916013 -0.36220703 -0.09453369
0.3451953 -0.3670117 -0.09465576
0.34316406 -0.36933592 -0.09472412
0.33705077 -0.37642577 -0.09493408
0.32878906 -0.3857617 -0.09523193
0.3266406 -0.388125 -0.095310055
0.3245703 -0.39048827 -0.09538818
0.31814453 -0.39740235 -0.09564209
0.31599608 -0.3996875 -0.09572998
0.31166014 -0.40429688 -0.09590576
0.30943358 -0.4066211 -0.09599853
0.3072656 -0.40886718 -0.096088864
0.305 -0.41115233 -0.09618408
0.3028125 -0.41345704 -0.09627929
0.30054685 -0.41572264 -0.09637939
0.2983203 -0.41798827 -0.09647949
0.29152343 -0.42478514 -0.09678955
0.2891992 -0.42703125 -0.09689453
0.28689453 -0.42927733 -0.097006835
0.2845508 -0.43148437 -0.097116694
0.28224608 -0.43378904 -0.09722168
0.27751952 -0.43820313 -0.09745361
0.27283204 -0.44259766 -0.09768799
0.26798826 -0.44708982 -0.09793213
0.26560545 -0.44927734 -0.0980542
0.2631836 -0.45142576 -0.09818115
0.25828123 -0.45587888 -0.098432615
0.2558203 -0.45802733 -0.09856689
0.25333983 -0.46021482 -0.09869873
0.25085938 -0.4623828 -0.098835446
0.2483789 -0.46455076 -0.098967284
0.24076171 -0.47099608 -0.09938476
0.23892577 -0.4745117 -0.099816896
0.23509765 -0.48166016 -0.10069824
0.23128906 -0.48886716 -0.10161377
0.22533202 -0.4999414 -0.10303955
0.2233789 -0.5036914 -0.10353271
0.22132812 -0.50751954 -0.10403076
0.21923828 -0.5113867 -0.104543455
0.21714844 -0.51527345 -0.10506103
0.21515624 -0.5192383 -0.10558838
0.21302734 -0.52314454 -0.10612549
0.21089843 -0.5271289 -0.10667236
0.1928125 -0.5089258 -0.102253415
0.19 -0.5109961 -0.10242675
0.18152343 -0.5171289 -0.10297119
0.17867187 -0.5191406 -0.103159174
0.17001952 -0.52523434 -0.103728026
0.16708983 -0.5272656 -0.103923336
0.16416015 -0.5292969 -0.10411865
0.16123046 -0.53128904 -0.10431884
0.15828125 -0.53328127 -0.10451416
0.15529296 -0.5353125 -0.10471924
0.15230468 -0.53728515 -0.10492431
0.14324218 -0.54322267 -0.10555176
0.1340039 -0.54910153 -0.10619873
0.13089843 -0.55109376 -0.10641845
0.121503904 -0.55689454 -0.10709228
0.118339844 -0.55880857 -0.10732178
0.108730465 -0.5645703 -0.1080249
0.09572265 -0.5721289 -0.1089917
0.08912109 -0.57591796 -0.1094873
0.08582031 -0.57777345 -0.10974365
0.079023436 -0.5815234 -0.11025879
0.0721875 -0.5851367 -0.11078369
0.06535156 -0.58884764 -0.11131591
0.051367186 -0.59611326 -0.11241455
0.04783203 -0.59791017 -0.11269775
0.040742185 -0.6014648 -0.11326416
0.03714844 -0.60324216 -0.11355469
0.029863281 -0.60679686 -0.114143066
0.018847656 -0.61201173 -0.115043946
0.015078125 -0.61373043 -0.115354
0.011386719 -0.6154883 -0.11566162
0.0076562497 -0.6171875 -0.11596923
-0.019257812 -0.62898433 -0.118239745
-0.027089844 -0.6322656 -0.11891357
-0.031132812 -0.63390625 -0.11925537
-0.03908203 -0.6371875 -0.11994384
-0.047148436 -0.6404101 -0.12064941
-0.051210936 -0.6420117 -0.1210083
-0.05953125 -0.64515626 -0.12173583
-0.06783203 -0.64830077 -0.12247314
-0.08476562 -0.6544531 -0.123989254
-0.0890625 -0.6559961 -0.12437744
-0.09771484 -0.6589648 -0.12516357
-0.11091796 -0.6633789 -0.12636963
-0.115312494 -0.66478515 -0.12677978
-0.119765624 -0.66628903 -0.12718993
-0.124238275 -0.6676953 -0.12760986
-0.14710937 -0.67466795 -0.12974365
-0.1517578 -0.67603517 -0.13018554
-0.15642577 -0.67742187 -0.13063233
-0.18023437 -0.68398434 -0.13290283
-0.18507811 -0.68523437 -0.13337158
-0.18992187 -0.6865429 -0.13384032
-0.19482422 -0.687832 -0.1343164
-0.20970702 -0.69146484 -0.13577148
-0.21476562 -0.6926953 -0.13626465
-0.21978515 -0.6938867 -0.1367578
-0.22488281 -0.6950586 -0.13726074
-0.2299414 -0.6961914 -0.13776855
-0.23507813 -0.6973828 -0.13827392
-0.25589845 -0.7018164 -0.14036377
-0.2718945 -0.70498043 -0.14197509
-0.27728516 -0.7059961 -0.14252196
-0.28816405 -0.7080664 -0.14363526
-0.29916015 -0.7099804 -0.14476319
-0.30470702 -0.710957 -0.14532958
-0.31027344 -0.7118555 -0.14591064
-0.3330078 -0.71542966 -0.14827149
-0.33873045 -0.71625 -0.1488745
-0.34449217 -0.7171094 -0.14947997
0.439707 0.5778711 -0.1499121
0.443457 0.56816405 -0.14880127
0.44527343 0.5633398 -0.1482544
0.44708982 0.55853516 -0.1477124
0.4488281 0.55375 -0.14717528
0.4523047 0.5442578 -0.14611083
0.4540039 0.5395117 -0.1455835
0.4573047 0.53011715 -0.14454345
0.46048826 0.5207422 -0.14352295
0.46205077 0.5160742 -0.14301513
0.4679492 0.49759763 -0.14104247
0.46943358 0.4930078 -0.14055663
0.47085938 0.48847654 -0.14007568
0.47222656 0.48390624 -0.13959716
0.47355467 0.47941405 -0.13912842
0.4799414 0.4569336 -0.13681884
0.48117188 0.45248047 -0.13636474
0.48464844 0.43923828 -0.13503662
0.48685545 0.43046874 -0.13417481
0.48794922 0.42611328 -0.13374268
0.48898438 0.42171875 -0.13332032
0.49199218 0.4088281 -0.13206787
0.49296874 0.40451172 -0.1316577
0.49390623 0.4002539 -0.13124755
0.49742186 0.38328123 -0.12965576
0.49824217 0.37910154 -0.12926513
0.50066406 0.3665625 -0.1281128
0.5035547 0.3500586 -0.12662353
0.50427735 0.3459375 -0.12625732
0.5055859 0.33779296 -0.12553222
0.5062109 0.33373046 -0.12517822
0.5068164 0.32970703 -0.124826655
0.50736326 0.3256836 -0.12447998
0.5079883 0.32167968 -0.124128416
0.5084961 0.3176367 -0.12378906
0.51007813 0.30568358 -0.12277343
0.5109961 0.29777342 -0.12211181
0.5114453 0.29390624 -0.121784665
0.5118945 0.28998047 -0.1214624
0.51230466 0.28605467 -0.12114502
0.51341796 0.27443358 -0.12019775
0.51378906 0.2705664 -0.11988525
0.514082 0.26669922 -0.11957763
0.51498044 0.2553125 -0.11867675
0.51527345 0.2515039 -0.11837646
0.51554686 0.24771483 -0.11808838
0.5159961 0.24015625 -0.11750732
0.5161719 0.23642577 -0.117216796
0.51634765 0.23269531 -0.11693847
0.51656246 0.2290039 -0.11665771
0.5166992 0.22527343 -0.116379395
0.51710933 0.21419922 -0.11555908
0.517207 0.21052735 -0.11529052
0.51728517 0.20685546 -0.11502197
0.51746094 0.19958983 -0.11449951
0.51746094 0.19597656 -0.11424072
0.517539 0.18876953 -0.11373047
0.51751953 0.18160155 -0.11322754
0.51746094 0.17802735 -0.112985834
0.517168 0.1603711 -0.11178467
0.51666015 0.14638671 -0.110866696
0.5165039 0.14291015 -0.11064209
0.5163086 0.13947265 -0.11041748
0.5161328 0.13605468 -0.11020263
0.51501954 0.11896484 -0.109133296
0.51480466 0.1155664 -0.10892334
0.51453125 0.11224609 -0.10872314
0.5142383 0.10886718 -0.108518064
0.53382814 0.096015625 -0.11197998
0.5318945 0.09234375 -0.11146728
0.5300781 0.08863281 -0.11095947
0.5228125 0.07429688 -0.10903076
0.5210547 0.07080078 -0.108566895
0.517539 0.06380859 -0.107666016
0.5157812 0.06046875 -0.107229
0.51240236 0.053671874 -0.10636963
0.5106836 0.05029297 -0.10595459
0.5090234 0.046992186 -0.10554443
0.50572264 0.04046875 -0.10474365
0.50507814 0.037285157 -0.10456298
0.5039844 0.030976562 -0.1042456
0.50347656 0.027871093 -0.10408935
0.50166017 0.018515624 -0.10364013
0.50103515 0.015410156 -0.10349365
0.50041014 0.012324219 -0.1033496
0.49912107 0.0061328122 -0.10306396
0.49785155 -1.953125e-05 -0.10278564
0.49580076 -0.0090625 -0.102380365
0.4951367 -0.012128906 -0.102248535
0.48912108 -0.03609375 -0.10126465
0.48757812 -0.041953124 -0.10102783
0.48595703 -0.0478125 -0.10080322
0.4842578 -0.053652342 -0.100588374
0.48341796 -0.05658203 -0.10048584
0.48255858 -0.059511717 -0.10037842
0.48166016 -0.06238281 -0.100275874
0.4808203 -0.065273434 -0.10017334
0.47902343 -0.071035154 -0.09997802
0.47810546 -0.073886715 -0.09988037
0.4771484 -0.07673828 -0.09979004
0.47628906 -0.079589844 -0.099694826
0.47437498 -0.0853125 -0.09951416
0.4734375 -0.08810547 -0.099423826
0.47248045 -0.09091797 -0.099338375
0.4685156 -0.1021875 -0.09900146
0.46652344 -0.107734375 -0.098850094
0.4633789 -0.116054684 -0.09862549
0.46234375 -0.11878906 -0.098554686
0.46126953 -0.12158203 -0.09848388
0.46021482 -0.12425781 -0.098415524
0.459082 -0.12699218 -0.09835205
0.45802733 -0.1297461 -0.098283686
0.45689452 -0.1324414 -0.098220214
0.4535547 -0.14058593 -0.098039545
0.4489453 -0.15132812 -0.09781494
0.44779295 -0.1540039 -0.09776611
0.44658202 -0.15669921 -0.0977124
0.44541013 -0.15933594 -0.09766601
0.4441992 -0.16199218 -0.09761963
0.4430078 -0.16466796 -0.0975708
0.4417578 -0.16728516 -0.097526856
0.44052732 -0.16990234 -0.09748535
0.4393164 -0.17253906 -0.09744385
0.43679687 -0.17779297 -0.09736328
0.43552732 -0.18035156 -0.0973291
0.4342578 -0.18292968 -0.097292475
0.4329883 -0.1855664 -0.097255856
0.43173826 -0.18820313 -0.09722412
0.4264453 -0.19845703 -0.09710693
0.42509764 -0.20101562 -0.09708252
0.42376953 -0.20351562 -0.09706055
0.42242187 -0.20613281 -0.097038575
0.41830078 -0.21373047 -0.09697754
0.41685545 -0.21623047 -0.09696533
0.41552734 -0.21875 -0.0969458
0.41408202 -0.22132812 -0.09693115
0.40833983 -0.23124999 -0.09689209
0.40546873 -0.23623046 -0.09687988
0.40095702 -0.24367186 -0.09687255
0.39949217 -0.24611327 -0.096875
0.39792967 -0.24857421 -0.09687744
0.39646482 -0.25101563 -0.09687744
0.39490235 -0.25345704 -0.09688232
0.39183593 -0.2582617 -0.09689697
0.38875 -0.26310545 -0.096916504
0.38714844 -0.2655664 -0.09693115
0.38560545 -0.26796874 -0.0969458
0.38396484 -0.27035156 -0.09696045
0.3791797 -0.2775586 -0.09701416
0.37589842 -0.28228515 -0.09705322
0.37423828 -0.28464842 -0.09707764
0.37259763 -0.2870703 -0.097102046
0.3708789 -0.28935546 -0.09713135
0.3692383 -0.29173827 -0.09716308
0.36751953 -0.2941211 -0.09718994
0.36412108 -0.29880857 -0.09725342
0.36242187 -0.3011328 -0.097287595
0.3589453 -0.30576172 -0.097355954
0.3536914 -0.31271484 -0.09747558
0.34109375 -0.32871094 -0.097807616
0.33558592 -0.33548826 -0.097971186
0.33179685 -0.33998045 -0.098088376
0.32228515 -0.3511328 -0.09840332
0.31443357 -0.35996094 -0.09868896
0.31048828 -0.36433592 -0.098835446
0.30847657 -0.3665234 -0.09891357
0.3024414 -0.3730664 -0.09915283
0.30037108 -0.37523437 -0.09923828
0.2983203 -0.3773828 -0.09932373
0.29623047 -0.3795117 -0.09940918
0.28998047 -0.38597655 -0.09968017
0.28578123 -0.39023438 -0.099863276
0.28365234 -0.39236328 -0.099963374
0.2815039 -0.3944336 -0.10005615
0.27935547 -0.39660156 -0.100153804
0.27617186 -0.40251952 -0.100791015
0.26976562 -0.4145703 -0.102131344
0.26816407 -0.41763672 -0.10248046
0.26646483 -0.42072263 -0.10284424
0.2598047 -0.4333203 -0.10432861
0.25289062 -0.44630858 -0.10592529
