VERSION 0.7
FIELDS x y z
SIZE 4 4 4
TYPE F F F
COUNT 1 1 1
WIDTH 1446
HEIGHT 1
VIEWPOINT 0.0 0.0 0.0 1.0 0.0 0.0 0.0
POINTS 1446
DATA ascii
-1.0982422 3.8758788 -0.099174194
-1.0725 3.8755467 -0.098996125
-1.046875 3.8752344 -0.098822325
-1.021289 3.8749022 -0.09865173
-0.9958203 3.8745701 -0.09848663
-0.9704492 3.8742578 -0.09832458
-0.9451367 3.8739257 -0.09816742
-0.9199023 3.873613 -0.09801437
-0.869707 3.8729687 -0.097720794
-0.844707 3.872656 -0.097580105
-0.8197656 3.8723242 -0.097444
-0.7949023 3.8720117 -0.097311094
-0.77011716 3.871699 -0.09718292
-0.72074217 3.8710742 -0.09693756
-0.6715625 3.870449 -0.09670837
-0.6470703 3.8701367 -0.09659942
-0.59828126 3.8695116 -0.09639328
-0.5739258 3.869199 -0.096295774
-0.5496484 3.8688867 -0.09620208
-0.5012109 3.8682616 -0.09602646
-0.4529492 3.8676562 -0.095865935
-0.4288672 3.8673437 -0.095792085
-0.4048242 3.8670506 -0.09572082
-0.35685545 3.8664258 -0.09559036
-0.3090039 3.8658202 -0.09547424
-0.26126954 3.8652148 -0.09537247
-0.2374414 3.8649023 -0.09532745
-0.21361327 3.8646092 -0.095285945
-0.18984374 3.8642967 -0.0952478
-0.16605468 3.864004 -0.095213465
0.023710936 3.861582 -0.09506805
0.071093746 3.8609765 -0.09506744
0.094765626 3.860664 -0.09507293
0.16589843 3.8597655 -0.09510879
0.1896289 3.8594725 -0.09512909
0.21335937 3.8591602 -0.09515167
0.2370703 3.8588672 -0.09517807
0.26083985 3.858535 -0.09520889
0.28460938 3.858242 -0.09524231
0.40376952 3.8567188 -0.095465235
0.4516211 3.8561132 -0.095580444
0.47558594 3.8558006 -0.09564362
0.57179683 3.8545702 -0.095932156
0.5959375 3.8542578 -0.09601394
0.6201172 3.8539648 -0.09609863
0.66861326 3.8533397 -0.09628097
0.6929492 3.8530273 -0.09637756
0.7417578 3.8524022 -0.09658279
0.76623046 3.8520896 -0.096690975
0.7907617 3.8517773 -0.09680313
0.8400195 3.8511522 -0.09703888
0.88953125 3.8505273 -0.097291104
0.9143945 3.8501952 -0.09742294
0.93927735 3.8498828 -0.097558595
0.9642773 3.8495703 -0.09769852
1.0396875 3.8486133 -0.09814346
1.090332 3.8479686 -0.09846054
1.1926953 3.8466601 -0.09914703
1.2965624 3.845332 -0.09990295
1.3755273 3.8443162 -0.10051712
1.5365624 3.8422656 -0.10187454
1.59125 3.841582 -0.10236633
1.7869922 3.839082 -0.10424987
1.8155664 3.8387108 -0.10454025
1.8443164 3.8383398 -0.10483643
1.9022851 3.8375976 -0.10544647
1.9314843 3.8372264 -0.10575973
2.0202734 3.8360937 -0.106735684
2.0803907 3.835332 -0.10741668
2.110742 3.8349414 -0.10776642
2.141289 3.8345506 -0.10812301
2.2029881 3.8337696 -0.10885452
2.297168 3.832578 -0.110002436
2.4259179 3.8309374 -0.11163116
2.5924609 3.8288085 -0.113834076
2.6609375 3.8279295 -0.11477035
2.7305858 3.8270507 -0.115738675
2.8014257 3.8261328 -0.11674286
2.8735352 3.8252149 -0.11778274
2.9841406 3.8238084 -0.119410396
3.0595899 3.8228514 -0.12054382
3.0978906 3.8223631 -0.12112548
3.1365235 3.8218749 -0.12171737
3.2149608 3.8208592 -0.122932434
3.254785 3.8203514 -0.12355682
3.2950194 3.8198438 -0.12419174
3.5025976 3.8171873 -0.12754028
3.545488 3.8166406 -0.12824646
3.6770506 3.8149803 -0.13044265
3.7219336 3.8143945 -0.13120133
3.7673047 3.813828 -0.13197403
3.8132226 3.8132422 -0.13276137
3.954414 3.8114257 -0.13520965
4.0026364 3.8108203 -0.13605697
4.100918 3.8095703 -0.13779846
4.151035 3.8089256 -0.1386943
4.2017775 3.8082812 -0.13960694
4.411758 3.8056054 -0.14343536
4.521152 3.8041992 -0.1454634
2.1956835 1.3529491 -0.06349258
2.1726563 1.3204297 -0.062590785
2.1615233 1.2955663 -0.062039793
2.160215 1.2590039 -0.06155426
2.163242 1.2430469 -0.061421506
2.171035 1.2298828 -0.061427917
2.191875 1.2063867 -0.061594084
2.2273047 1.1905078 -0.062174376
2.2606444 1.1905664 -0.06289993
2.2286327 -1.6317577 -0.068000026
2.19625 -1.6288476 -0.06731613
2.1738672 -1.6330273 -0.06693558
2.1423047 -1.6508203 -0.066582486
2.130449 -1.6626172 -0.06652908
2.106035 -1.7283593 -0.067072146
2.1327538 -1.7945312 -0.068619385
4.3455076 -4.2401366 -0.1494693
4.2917967 -4.239453 -0.1485138
4.238789 -4.2387695 -0.14757675
4.083633 -4.236797 -0.14486572
3.9833007 -4.235527 -0.1431404
3.8371875 -4.233652 -0.1406662
3.7895703 -4.233047 -0.1398706
3.7424998 -4.2324414 -0.1390892
3.695957 -4.2318554 -0.13832183
3.649922 -4.2312694 -0.1375682
3.5593555 -4.2301173 -0.13610001
3.4706445 -4.2289844 -0.13468322
3.3837695 -4.227871 -0.13331543
3.2986133 -4.2267966 -0.13199447
3.2566795 -4.2262497 -0.13135132
3.2151365 -4.225723 -0.13071945
3.1740038 -4.2251954 -0.13009827
2.9349804 -4.2221484 -0.12658936
2.8963866 -4.22166 -0.12603988
2.858125 -4.221172 -0.12549926
2.782539 -4.2201953 -0.12444595
2.7452343 -4.2197266 -0.1239331
2.7082422 -4.219258 -0.12342865
2.671543 -4.218789 -0.12293335
2.635117 -4.2183204 -0.12244628
2.5989842 -4.217871 -0.121967316
2.5631444 -4.2174025 -0.12149719
2.4922462 -4.2165036 -0.12058136
2.4571874 -4.2160544 -0.12013519
2.422422 -4.2156053 -0.11969619
2.387871 -4.2151756 -0.11926529
2.1527343 -4.2121677 -0.11645523
2.1200194 -4.2117577 -0.116082154
2.0875194 -4.2113476 -0.11571564
2.0552344 -4.2109375 -0.11535553
2.0231445 -4.2105274 -0.11500213
1.9280077 -4.2093163 -0.11397995
1.8966601 -4.208906 -0.113651425
1.8037109 -4.2077146 -0.11270446
1.7425586 -4.2069335 -0.1121019
1.6820898 -4.206172 -0.11152282
1.6520703 -4.205781 -0.11124191
1.622207 -4.20541 -0.110966794
1.5629296 -4.2046485 -0.11043243
1.5334765 -4.204277 -0.11017303
1.5041796 -4.203906 -0.10991943
1.445996 -4.203164 -0.109427795
1.4170898 -4.2027926 -0.1091896
1.3883008 -4.2024217 -0.10895706
1.3026953 -4.201328 -0.10828873
1.274375 -4.2009764 -0.108075865
1.2461523 -4.2006054 -0.10786758
1.1900586 -4.199902 -0.10746627
1.1621875 -4.1995506 -0.107272185
1.051582 -4.198125 -0.106544495
1.0241797 -4.1977735 -0.10637512
0.9968359 -4.197441 -0.106208645
0.915332 -4.196387 -0.10573852
0.8345117 -4.195371 -0.10530746
0.75433594 -4.194336 -0.10491516
0.70119137 -4.1936717 -0.10467499
0.64830077 -4.1929884 -0.1044519
0.6219336 -4.192656 -0.10434692
0.595625 -4.192324 -0.1042453
0.543125 -4.1916404 -0.10405487
0.4647461 -4.1906443 -0.1038002
0.4386914 -4.1903124 -0.103723295
0.4126953 -4.1899805 -0.103650056
0.38671875 -4.189648 -0.103581995
0.28312498 -4.1883397 -0.103345945
0.25730467 -4.188008 -0.10329666
0.20570312 -4.1873436 -0.1032106
0.12847656 -4.186367 -0.103110656
0.10275391 -4.186035 -0.10308548
-0.025664061 -4.1843944 -0.103015594
-0.051347654 -4.1840625 -0.10301391
-0.10267578 -4.183418 -0.10302017
-0.15404296 -4.182754 -0.10304321
-0.17974609 -4.182441 -0.103060454
-0.20544921 -4.1821094 -0.1030809
-0.256875 -4.181445 -0.10313507
-0.28261718 -4.1811132 -0.10316818
-0.3083789 -4.180801 -0.103204645
-0.38578123 -4.179805 -0.10333816
-0.4116406 -4.1794724 -0.1033905
-0.4375 -4.1791406 -0.103446655
-0.46341795 -4.1788087 -0.103507385
-0.48935544 -4.1784763 -0.10357132
-0.6457422 -4.176484 -0.10404083
-0.6719336 -4.176152 -0.104133606
-0.6982031 -4.1758204 -0.10423004
-0.8302734 -4.1741405 -0.10477417
-0.8835156 -4.173457 -0.10502105
-1.0178125 -4.1717577 -0.10571457
-1.0720313 -4.1710544 -0.10602264
-1.2367382 -4.168965 -0.1070549
-1.2645117 -4.168613 -0.10724273
-1.320371 -4.1678905 -0.107633054
-1.348457 -4.167539 -0.10783538
-1.3766406 -4.1671677 -0.10804229
-1.4333594 -4.1664453 -0.10847153
-1.548164 -4.1649804 -0.10939041
-1.5737109 -4.155488 -0.10939239
-1.5957812 -4.136894 -0.10915908
-1.6176953 -4.1182814 -0.108927764
-1.7251172 -4.024375 -0.10779312
-1.7670703 -3.9864452 -0.107350156
-1.808457 -3.9483397 -0.10691345
-1.8289257 -3.9291992 -0.10669723
-1.8492968 -3.9100194 -0.10648239
-1.8695117 -3.8907812 -0.106269374
-1.8895702 -3.8715038 -0.10605773
-1.9094921 -3.8521874 -0.105847776
-1.9489453 -3.8134375 -0.10543167
-2.0070703 -3.7549608 -0.10481903
-2.0451562 -3.7157812 -0.104417875
-2.0639453 -3.6961327 -0.10421982
-2.0826561 -3.6764452 -0.10402252
-2.1012304 -3.6566992 -0.10382705
-2.119668 -3.636953 -0.10363311
-2.2098045 -3.5375195 -0.102684475
-2.2623045 -3.4774413 -0.10213226
-2.2795703 -3.4573631 -0.10195068
-2.2966797 -3.4372265 -0.10177093
-2.3472266 -3.3766406 -0.10123993
-2.4289453 -3.2750585 -0.10038177
-2.4449022 -3.254629 -0.10021453
-2.5075 -3.1727538 -0.099557795
-2.538086 -3.13166 -0.09923721
-2.568125 -3.0904295 -0.098922424
-2.6123242 -3.0283787 -0.098459624
-2.6411328 -2.986914 -0.0981578
-2.6553905 -2.9661717 -0.09800888
-2.6695116 -2.9453516 -0.09786102
-2.6835155 -2.9245312 -0.09771469
-2.6973827 -2.9037108 -0.09756958
-2.7111523 -2.882832 -0.097425684
-2.7781835 -2.7781835 -0.09672531
-2.8170116 -2.7151756 -0.09632034
-2.8423243 -2.6730468 -0.09605651
-2.8547852 -2.6519725 -0.09592636
-2.8671484 -2.6308594 -0.095797576
-2.9035351 -2.567422 -0.09541839
-2.9733007 -2.4401367 -0.09469284
-2.9845312 -2.4188476 -0.094576105
-3.00666 -2.37625 -0.094346315
-3.0600586 -2.2694921 -0.09379227
-3.07041 -2.2481248 -0.09368499
-3.080664 -2.2267187 -0.09357879
-3.1205664 -2.1409376 -0.093166046
-3.1493554 -2.0764844 -0.092868805
-3.1680079 -2.033457 -0.09267624
-3.1771874 -2.0119336 -0.09258148
-3.1862304 -1.9903905 -0.092487946
-3.2214453 -1.9041015 -0.09212555
-3.23 -1.8824804 -0.09203751
-3.2384374 -1.8608984 -0.09195099
-3.2711523 -1.774375 -0.09161514
-3.2790625 -1.7526953 -0.09153397
-3.2945898 -1.7093555 -0.09137497
-3.3021874 -1.6876757 -0.09129715
-3.309707 -1.6659765 -0.091220394
-3.3316014 -1.6008203 -0.090996705
-3.3387108 -1.579082 -0.090924375
-3.352617 -1.5356054 -0.090782925
-3.359414 -1.5138671 -0.090713345
-3.3856053 -1.4267578 -0.090447694
-3.391914 -1.4049804 -0.09038391
-3.4041991 -1.3613477 -0.09025955
-3.4275975 -1.274082 -0.09002365
-3.433203 -1.252246 -0.0899675
-3.438711 -1.2303905 -0.08991211
-3.4441211 -1.2085351 -0.08985779
-3.4494336 -1.1866602 -0.08980469
-3.4597461 -1.1429297 -0.08970153
-3.4791992 -1.0553906 -0.089507595
-3.4838476 -1.0335351 -0.08946167
-3.4883592 -1.0116211 -0.089417115
-3.4971287 -0.96777344 -0.08933029
-3.5013866 -0.94587886 -0.08928848
-3.5055077 -0.9239453 -0.089248195
-3.513496 -0.8800781 -0.089170076
-3.5210936 -0.8362109 -0.08909591
-3.5351562 -0.7483984 -0.08896011
-3.5416405 -0.70447266 -0.08889816
-3.5561132 -0.5945898 -0.0887616
-3.5612304 -0.5506055 -0.08871414
-3.5636523 -0.52861327 -0.08869186
-3.5703516 -0.46259764 -0.088631436
-3.5723827 -0.44060546 -0.08861343
-3.5761719 -0.39658204 -0.08858017
-3.5779295 -0.3745703 -0.08856491
-3.5840235 -0.2865039 -0.0885144
-3.5852928 -0.26447266 -0.088504635
-3.586465 -0.2424414 -0.088495634
-3.587578 -0.22041015 -0.08848754
-3.5885937 -0.19835937 -0.088480525
-3.5894725 -0.17634766 -0.08847458
-3.5903125 -0.15429688 -0.088469386
-3.590996 -0.13224609 -0.08846573
-3.5916405 -0.110214844 -0.088462524
-3.5931835 -0.022050781 -0.08846084
-2.3839452 0.014628906 -0.101416014
-2.3838866 0.029257812 -0.10141906
-2.38375 0.043886717 -0.101422876
-2.3835547 0.058515623 -0.10142761
-2.3825 0.10242187 -0.101446226
-2.3820312 0.11705078 -0.1014537
-2.3801172 0.16089843 -0.101481624
-2.3784766 0.19013672 -0.10150406
-2.3775585 0.20474608 -0.10151626
-2.3755078 0.23396485 -0.10154312
-2.3731444 0.2631836 -0.10157318
-2.3660157 0.33615234 -0.10166183
-2.3643749 0.3507422 -0.10168213
-2.362656 0.36529297 -0.10170288
-2.360879 0.37986326 -0.10172439
-2.355078 0.4235547 -0.10179367
-2.3530273 0.4380859 -0.101818234
-2.348672 0.4671875 -0.10186966
-2.344004 0.49625 -0.10192474
-2.3390625 0.52527344 -0.10198242
-2.333828 0.55427736 -0.10204315
-2.3310938 0.56874996 -0.102074735
-2.3283203 0.5832226 -0.10210678
-2.3254492 0.5976953 -0.102140196
-2.319492 0.6266016 -0.10220886
-2.3132617 0.65546876 -0.10228073
-2.310039 0.6699023 -0.10231735
-2.2999022 0.713125 -0.10243317
-2.2963867 0.72749996 -0.10247314
-2.2891405 0.7562305 -0.10255584
-2.2853906 0.7705859 -0.10259811
-2.2776952 0.7992578 -0.10268539
-2.27375 0.8135742 -0.1027301
-2.269707 0.8278711 -0.10277588
-2.2656054 0.8421484 -0.10282196
-2.2614453 0.85642576 -0.10286911
-2.2571874 0.87068355 -0.10291717
-2.2528515 0.8849414 -0.10296585
-2.2440038 0.91339844 -0.10306549
-2.2301757 0.9559961 -0.10322067
-2.215664 0.998457 -0.103383176
-2.2106836 1.0125781 -0.10343887
-2.2005079 1.0407813 -0.10355255
-2.1900585 1.0689062 -0.10366913
-2.1510937 1.1668164 -0.10410293
-2.1452343 1.1807421 -0.10416794
-2.1332812 1.2084961 -0.104300685
-2.127207 1.2223437 -0.10436798
-2.1210546 1.236211 -0.10443634
-2.114824 1.2500196 -0.10450531
-2.108535 1.263828 -0.10457504
-2.0957031 1.2913476 -0.10471695
-2.0891798 1.3050781 -0.10478912
-2.0414453 1.4005859 -0.10531647
-2.0343163 1.414121 -0.10539505
-2.027129 1.4276757 -0.10547424
-2.0125196 1.4546679 -0.10563507
-2.0051172 1.468125 -0.105716854
-1.9746875 1.5216796 -0.10605163
-1.966914 1.535 -0.10613708
-1.9511132 1.5615624 -0.106310725
-1.9103124 1.6275195 -0.10675857
-1.8934765 1.6536914 -0.106943205
-1.8763281 1.679746 -0.10713119
-1.8411328 1.7315234 -0.10751678
-1.8321484 1.744375 -0.10761535
-1.8230859 1.7571875 -0.107714385
-1.8139648 1.7699804 -0.10781418
-1.8047265 1.7827734 -0.10791519
-1.7861133 1.808164 -0.10811889
-1.7671484 1.8334374 -0.108326264
-1.7575781 1.8460351 -0.108431086
-1.7184961 1.8960546 -0.10885788
-1.6984766 1.9208398 -0.10907623
-1.6781836 1.9454882 -0.10929763
-1.6575781 1.9699805 -0.109522395
-1.6471679 1.982168 -0.109636225
-1.6261133 2.0064452 -0.10986541
-1.6047655 2.0305078 -0.110098265
-1.5939844 2.0425 -0.11021575
-1.5389062 2.1018164 -0.11081558
-1.5276562 2.1135547 -0.110937804
-1.5163281 2.1252344 -0.11106079
-1.4934765 2.1484962 -0.111309506
-1.4819336 2.160039 -0.11143494
-1.4703516 2.1715624 -0.11156143
-1.4586328 2.1830273 -0.11168869
-1.446875 2.1944335 -0.11181671
-1.4350195 2.2058203 -0.11194534
-1.3990625 2.239668 -0.11233612
-1.3624023 2.2730467 -0.11273437
-1.337578 2.295078 -0.11300369
-1.3125 2.3168945 -0.11327621
-1.2998437 2.3277147 -0.11341354
-1.2870703 2.338496 -0.11355194
-1.2742578 2.3492186 -0.11369094
-1.2090625 2.4020507 -0.11439804
-1.1958008 2.4124413 -0.11454162
-1.1824805 2.4228125 -0.11468627
-1.169082 2.433086 -0.11483154
-1.114707 2.473672 -0.11542038
-1.1009179 2.483672 -0.11556961
-1.0870508 2.4935937 -0.11571976
-1.0167187 2.5423827 -0.11648132
-1.0024414 2.5519726 -0.11663589
-0.9880664 2.5614843 -0.116791226
-0.9736328 2.5709374 -0.11694732
-0.94455075 2.5896485 -0.11726196
-0.92988276 2.5988867 -0.1174205
-0.91515625 2.6080859 -0.1175798
-0.8855078 2.62625 -0.11790054
-0.87056637 2.635254 -0.11806198
-0.85554683 2.64416 -0.11822418
-0.8404492 2.6530273 -0.118387446
-0.7639844 2.69625 -0.11921356
-0.7328906 2.7130468 -0.11954941
-0.7172656 2.721289 -0.119718164
-0.7015234 2.7295117 -0.119887844
-0.6698828 2.7457225 -0.120229185
-0.6379687 2.7616405 -0.12057388
-0.54054683 2.8075 -0.12162475
-0.524082 2.8148828 -0.12180221
-0.4742578 2.8365037 -0.12233963
-0.45753905 2.8435352 -0.122519985
-0.44072264 2.8505077 -0.12270111
-0.42382812 2.8573828 -0.12288299
-0.3385156 2.8905272 -0.12380249
-0.32125 2.8968554 -0.12398834
-0.28652343 2.9093554 -0.12436203
-0.26908204 2.9154296 -0.12454971
-0.2515625 2.9214647 -0.12473846
-0.23398437 2.9273827 -0.12492767
-0.21634765 2.933203 -0.12511733
-0.16308594 2.9501562 -0.12569107
-0.1451953 2.9556055 -0.12588333
-0.1272461 2.9609766 -0.12607636
-0.091171876 2.9714258 -0.12646438
-0.036660157 2.9863865 -0.12705077
-0.018359374 2.9911914 -0.12724762
1.953125e-05 2.995879 -0.12744507
0.03689453 3.0049608 -0.12784134
0.055429686 3.0093749 -0.12804078
0.074003905 3.0136523 -0.12824035
0.14884765 3.0298436 -0.12904449
0.18660156 3.0373046 -0.12944992
0.24361327 3.0476952 -0.1300624
0.26273438 3.050957 -0.13026763
0.30111328 3.057129 -0.13067947
0.3203711 3.0600586 -0.13088638
0.3396875 3.062871 -0.13109374
0.35902342 3.0655859 -0.13130142
0.39789063 3.070664 -0.1317183
0.4173633 3.0730662 -0.13192734
0.4761328 3.0794725 -0.13255753
0.59480464 3.0892577 -0.1338301
0.61472654 3.090449 -0.13404357
0.6747461 3.0933983 -0.13468674
0.69480467 3.0941405 -0.13490173
0.7350781 3.0952344 -0.13533325
0.77548826 3.0958593 -0.13576613
0.7957031 3.0959766 -0.13598266
0.8363281 3.0958397 -0.13641769
0.8566797 3.0955858 -0.13663544
0.9178906 3.094043 -0.13729064
0.9383398 3.0933008 -0.13750945
0.9998828 3.0902343 -0.13816787
1.0204687 3.0889452 -0.13838822
1.0616602 3.0859766 -0.13882874
1.1443164 3.0784764 -0.13971253
1.1857421 3.0739062 -0.14015548
1.2064843 3.0714257 -0.1403772
1.227246 3.068828 -0.14059936
1.2896093 3.0601366 -0.14126572
1.3104101 3.0569725 -0.14148773
1.3520703 3.0502343 -0.14193268
1.3729101 3.0466602 -0.14215516
1.39375 3.04291 -0.14237778
1.4354882 3.0350585 -0.14282349
1.4980664 3.0221875 -0.1434915
1.5398047 3.0128906 -0.14393677
1.5606836 3.0080469 -0.14415954
1.581543 3.0030272 -0.14438216
1.6232812 2.9925976 -0.14482726
1.644121 2.9871678 -0.14504959
1.6649609 2.9815624 -0.14527176
1.7482617 2.9577734 -0.14615981
1.8313476 2.931621 -0.14704499
1.8520702 2.924746 -0.14726593
1.893496 2.9104881 -0.14770691
1.9141406 2.903125 -0.14792709
1.9554101 2.8879492 -0.14836639
1.996582 2.8722265 -0.14880477
2.0171485 2.8641405 -0.14902359
2.0376563 2.8558593 -0.14924148
2.0581446 2.8474803 -0.14945969
2.0990233 2.8302147 -0.14989457
2.184492 -2.7640429 -0.14987075
2.1643555 -2.7733593 -0.14965346
2.1239648 -2.7915623 -0.14921783
2.042754 -2.8261719 -0.14834258
2.0223827 -2.834453 -0.14812286
2.0019922 -2.8425782 -0.14790313
1.9610742 -2.8583984 -0.14746246
1.9406054 -2.866074 -0.14724182
1.8790234 -2.8882227 -0.14657867
1.8584374 -2.8953319 -0.14635712
1.8378711 -2.902246 -0.1461354
1.7966211 -2.9157226 -0.14569198
1.7759961 -2.9222264 -0.14546981
1.6933203 -2.946797 -0.14458038
1.6726366 -2.9525976 -0.1443579
1.6312305 -2.9637303 -0.14391251
1.5898046 -2.9742773 -0.1434671
1.5276366 -2.9890819 -0.14279906
1.506914 -2.9937108 -0.14257629
1.3826367 -3.018613 -0.14124115
1.34125 -3.0258007 -0.14079696
1.2792578 -3.0355663 -0.14013137
1.2173632 -3.0441015 -0.13946731
1.1761913 -3.0491211 -0.13902542
1.1145313 -3.0556445 -0.1383641
1.0735351 -3.0593555 -0.1379242
1.0530468 -3.060996 -0.13770477
0.99179685 -3.0651758 -0.13704804
0.9714062 -3.066289 -0.13682984
0.86992186 -3.0700781 -0.13574219
0.7491406 -3.070449 -0.13444869
0.6493945 -3.0674412 -0.13338119
0.5702734 -3.0628905 -0.13253479
0.53095704 -3.0599217 -0.1321141
0.47230467 -3.0546093 -0.13148682
0.452832 -3.0525975 -0.13127853
0.4140039 -3.0482616 -0.13086365
0.3946875 -3.045918 -0.1306572
0.3753711 -3.0434766 -0.13045074
0.3561328 -3.0409179 -0.13024536
0.3178125 -3.0354881 -0.1298355
0.20390624 -3.016621 -0.12861922
0.12902343 -3.0019336 -0.12781982
0.11042968 -2.9979882 -0.12762131
0.091874994 -2.9939454 -0.12742339
0.07339843 -2.989824 -0.12722625
-0.018203124 -2.9677148 -0.12624907
-0.036367185 -2.9629686 -0.1260553
-0.054472655 -2.9581835 -0.12586227
-0.0725 -2.9532812 -0.12567016
-0.09046875 -2.9482617 -0.12547821
-0.1083789 -2.9431446 -0.12528716
-0.12625 -2.9379492 -0.12509674
-0.1440625 -2.9326756 -0.12490692
-0.16179687 -2.9273045 -0.12471786
-0.19714843 -2.9162695 -0.12434158
-0.21470703 -2.910625 -0.1241542
-0.26703125 -2.8931248 -0.1235968
-0.28433594 -2.8871288 -0.123412475
-0.33595702 -2.8685546 -0.12286316
-0.35302734 -2.862207 -0.122681424
-0.38695312 -2.8492382 -0.122319944
-0.43742186 -2.8291407 -0.12178314
-0.47074217 -2.8153906 -0.12142853
-0.4873047 -2.8083594 -0.12125244
-0.5201953 -2.7940624 -0.12090225
-0.6333398 -2.741621 -0.1196997
-0.66503906 -2.7259374 -0.119362794
-0.6965039 -2.7099414 -0.11902862
-0.7121289 -2.7018554 -0.11886276
-0.7585742 -2.6771483 -0.118369594
-0.8195312 -2.643164 -0.11772217
-0.8346093 -2.6345313 -0.11756226
-0.8495898 -2.6258006 -0.117403254
-0.8645312 -2.6169922 -0.117245026
-0.89417964 -2.5991797 -0.11693023
-0.9089062 -2.5901952 -0.11677444
-0.92355466 -2.5811327 -0.11661911
-0.93810546 -2.5719922 -0.11646453
-0.9814062 -2.5442576 -0.1160054
-1.0099219 -2.5254102 -0.11570328
-1.038164 -2.5063477 -0.11540405
-1.0521679 -2.496699 -0.115255885
-1.0937304 -2.4674609 -0.11481552
-1.1074609 -2.4575782 -0.114670254
-1.1210938 -2.4476562 -0.11452576
-1.2664062 -2.3346875 -0.11298874
-1.2791797 -2.3241014 -0.11285385
-1.3295312 -2.281211 -0.11232177
-1.3419336 -2.270371 -0.1121907
-1.3665038 -2.2485156 -0.11193115
-1.3786914 -2.2375 -0.11180252
-1.4028516 -2.2153516 -0.111547545
-1.4148241 -2.204199 -0.1114212
-1.4267187 -2.1930077 -0.111295775
-1.4385155 -2.1817772 -0.11117142
-1.461953 -2.1591406 -0.11092422
-1.4850585 -2.1363475 -0.11068069
-1.5303906 -2.0901756 -0.11020294
-1.5415429 -2.0785155 -0.11008545
-1.5526172 -2.0668359 -0.109968714
-1.5636327 -2.0551367 -0.10985306
-1.5854297 -2.0315235 -0.109623566
-1.6175586 -1.9958398 -0.10928558
-1.6385741 -1.9718359 -0.109064326
-1.6489843 -1.9597656 -0.10895477
-1.6593164 -1.9476562 -0.10884613
-1.6695898 -1.9355469 -0.1087384
-1.6797851 -1.9233593 -0.10863128
-1.7296289 -1.8618945 -0.10810775
-1.739375 -1.8494922 -0.10800537
-1.768164 -1.8120898 -0.10770355
-1.7775977 -1.7995703 -0.10760437
-1.7869726 -1.7869922 -0.10750625
-1.7962695 -1.7743945 -0.1074086
-1.8054882 -1.7617188 -0.10731201
-1.8237305 -1.7363477 -0.10712097
-1.8327539 -1.7235937 -0.10702667
-1.8505273 -1.6980078 -0.10684066
-1.8680273 -1.6723242 -0.10665725
-1.8937109 -1.6335351 -0.10638901
-1.9021288 -1.6205273 -0.106301114
-1.9104687 -1.6075195 -0.10621399
-1.9269335 -1.5813867 -0.10604202
-1.935039 -1.5682812 -0.10595734
-1.9430859 -1.5551562 -0.10587341
-1.9510547 -1.5419922 -0.10579025
-1.9667773 -1.5155663 -0.105626374
-1.9745312 -1.5023242 -0.1055455
-1.9898046 -1.4757617 -0.1053865
-1.9973437 -1.4624219 -0.10530807
-2.0549414 -1.3549023 -0.10470916
-2.0618165 -1.3413671 -0.104637906
-2.075332 -1.3142188 -0.10449752
-2.0885742 -1.2869531 -0.1043605
-2.1078515 -1.2458984 -0.10416092
-2.1203516 -1.2183985 -0.104031675
-2.1325586 -1.1908593 -0.103905484
-2.1503124 -1.1493554 -0.10372238
-2.1560936 -1.1354883 -0.10366287
-2.1674218 -1.1077148 -0.10354614
-2.1729882 -1.0937696 -0.10348892
-2.178457 -1.0798438 -0.10343277
-2.1838868 -1.0658984 -0.103377074
-2.1944726 -1.0379101 -0.103268124
-2.209824 -0.9958203 -0.103110805
-2.2148242 -0.9817578 -0.10305984
-2.229297 -0.9394726 -0.10291183
-2.2385938 -0.9112109 -0.10281707
-2.2475977 -0.8828711 -0.10272537
-2.2605858 -0.84029293 -0.10259353
-2.264746 -0.8260547 -0.10255127
-2.276836 -0.78330076 -0.10242889
-2.2807422 -0.76900387 -0.10238952
-2.2883203 -0.74041015 -0.10231323
-2.2955859 -0.7117578 -0.102240294
-2.2991211 -0.69742185 -0.10220474
-2.3025587 -0.68306637 -0.10217041
-2.3125 -0.6399414 -0.10207108
-2.315664 -0.6255469 -0.10203979
-2.31875 -0.61115235 -0.102009125
-2.3217773 -0.59675777 -0.10197906
-2.3409178 -0.4955664 -0.10179108
-2.3433788 -0.48109373 -0.101767115
-2.3457422 -0.46660155 -0.10174438
-2.3524609 -0.4230664 -0.10167968
-2.3565624 -0.3940039 -0.10164062
-2.3603907 -0.3649414 -0.10160446
-2.3621874 -0.3503906 -0.101587825
-2.3655858 -0.32128906 -0.10155624
-2.3701367 -0.2775586 -0.101514734
-2.374043 -0.23382811 -0.1014804
-2.376289 -0.2046289 -0.10146118
-2.378242 -0.17541015 -0.10144531
-2.380625 -0.13158202 -0.101427
-2.3823829 -0.08775391 -0.1014154
-2.382832 -0.073125 -0.101413265
-2.383496 -0.043886717 -0.101411134
-2.3837109 -0.029257812 -0.10141128
-2.383867 -0.014609375 -0.101411894
-1.7828906 0.021894531 -0.10785355
-1.7827734 0.03283203 -0.10785675
-1.7820703 0.06564453 -0.107869565
-1.7817187 0.07658203 -0.10787506
-1.7803515 0.109375 -0.10789535
-1.7797656 0.12029297 -0.10790344
-1.7791406 0.13123046 -0.10791198
-1.7777148 0.15308593 -0.107931055
-1.776914 0.16400391 -0.107941434
-1.7760546 0.17492187 -0.10795242
-1.7731249 0.20767577 -0.10798904
-1.7708983 0.22947265 -0.10801666
-1.769707 0.2403711 -0.10803131
-1.7684569 0.25125 -0.10804672
-1.7671484 0.2621289 -0.10806244
-1.7628515 0.29476562 -0.10811401
-1.7613281 0.305625 -0.10813217
-1.7597265 0.31648436 -0.10815124
-1.7580664 0.32734373 -0.10817093
-1.7545898 0.3490039 -0.10821152
-1.7508594 0.37066406 -0.108255304
-1.7489257 0.38146484 -0.10827789
-1.7448828 0.40308592 -0.10832458
-1.7405859 0.42464843 -0.10837417
-1.7383398 0.4354492 -0.10839996
-1.7263671 0.48917967 -0.10853744
-1.723789 0.49990234 -0.10856674
-1.7184961 0.5213086 -0.108627014
-1.7100977 0.55333984 -0.108722225
-1.694961 0.6064648 -0.108893275
-1.6917773 0.6170703 -0.108929135
-1.6852343 0.63822263 -0.109002836
-1.6784375 0.6593164 -0.10907928
-1.6749609 0.66984373 -0.10911804
-1.6714257 0.680332 -0.10915771
-1.6641797 0.7013281 -0.10923889
-1.6604687 0.7117969 -0.10928024
-1.6566992 0.72224605 -0.109322354
-1.6370507 0.7742969 -0.10954147
-1.6329492 0.7846484 -0.1095874
-1.6287891 0.79498047 -0.10963348
-1.6203125 0.81560546 -0.10972778
-1.6160156 0.82587886 -0.10977585
-1.611621 0.83617187 -0.10982452
-1.607168 0.8464062 -0.10987381
-1.598125 0.86685544 -0.10997421
-1.5935156 0.87705076 -0.110025324
-1.5841211 0.89740235 -0.11012924
-1.5745116 0.91765624 -0.11023544
-1.5696288 0.92775387 -0.11028961
-1.5546093 0.9579297 -0.110455476
-1.5494921 0.9679492 -0.11051162
-1.5443164 0.9779492 -0.110569
-1.5338086 0.9978711 -0.11068496
-1.528457 1.007793 -0.11074371
-1.5176171 1.0275977 -0.11086304
-1.4952539 1.066875 -0.111108854
-1.4779102 1.0960742 -0.111299895
-1.4478515 1.1442773 -0.11162979
-1.4416991 1.1538476 -0.111697234
-1.4354687 1.1633788 -0.11176559
-1.41 1.2012695 -0.11204468
-1.396914 1.220039 -0.112187654
-1.3902929 1.229375 -0.11226043
-1.3768945 1.2479687 -0.11240692
-1.3494531 1.2848047 -0.11270691
-1.3424609 1.2939258 -0.11278351
-1.3283203 1.3121094 -0.112938076
-1.3211523 1.3211523 -0.1130162
-1.299336 1.3480663 -0.11325439
-1.2919531 1.3569726 -0.113334805
-1.2845117 1.3658594 -0.11341598
-1.2770312 1.374707 -0.113497615
-1.2694921 1.3835351 -0.11358001
-1.2465429 1.409746 -0.113830104
-1.2388085 1.4184375 -0.11391449
-1.223125 1.4356836 -0.11408508
-1.2152148 1.4442383 -0.114171445
-1.1991992 1.461289 -0.11434555
-1.1911719 1.4697266 -0.11443329
-1.1748632 1.4865429 -0.11461075
-1.1666211 1.4949023 -0.11470032
-1.1583399 1.503203 -0.11479034
-1.1416016 1.519707 -0.11497253
-1.1160938 1.5441601 -0.11524933
-1.0814062 1.5762304 -0.11562637
-1.0725976 1.5841405 -0.11572189
-1.0548438 1.5998437 -0.11591491
-1.0458789 1.6076562 -0.11601196
-1.036875 1.6153905 -0.116109766
-0.99105465 1.6534765 -0.1166069
-0.98173827 1.660957 -0.11670791
-0.97236323 1.6684179 -0.11680938
-0.9629492 1.6758202 -0.11691146
-0.95347655 1.683164 -0.117014155
-0.87599605 1.740332 -0.117853545
-0.86609375 1.7472656 -0.11796066
-0.8561328 1.7541406 -0.11806854
-0.8461328 1.760957 -0.11817688
-0.8360742 1.7677343 -0.11828567
-0.7850781 1.800918 -0.118837275
-0.7747656 1.8074023 -0.11894882
-0.764375 1.8138281 -0.11906143
-0.7117773 1.8451953 -0.11962982
-0.6903906 1.8573828 -0.11986053
-0.6688281 1.8693359 -0.12009338
-0.6580078 1.8752344 -0.120210566
-0.6471289 1.8810742 -0.12032791
-0.63619137 1.8868555 -0.12044601
-0.62523437 1.8925781 -0.12056442
-0.59203124 1.9094336 -0.120923005
-0.558457 1.9257421 -0.121285096
-0.5130859 1.9466991 -0.12177444
-0.50162107 1.9517773 -0.12189788
-0.4786328 1.9617773 -0.122146145
-0.46705076 1.9666991 -0.12227081
-0.44378906 1.9763281 -0.12252151
-0.38492188 1.9992774 -0.12315567
-0.37304688 2.0036914 -0.123283535
-0.31304687 2.024746 -0.12392975
-0.22748046 2.0514452 -0.12485031
-0.2151367 2.0549805 -0.124983214
-0.20273437 2.058457 -0.12511657
-0.19031249 2.0618749 -0.12525024
-0.1528125 2.0716796 -0.12565337
-0.12765625 2.0778515 -0.12592392
-0.11501953 2.0808399 -0.12605956
-0.10236328 2.08375 -0.12619567
-0.07693359 2.0893555 -0.12646881
-0.06419922 2.0920703 -0.12660584
-0.05142578 2.094707 -0.12674285
-0.03859375 2.0972266 -0.12688065
1.953125e-05 2.104453 -0.12729537
0.012929687 2.1067188 -0.12743407
0.07796875 2.1168554 -0.12813263
0.13046874 2.1235938 -0.12869552
0.14365233 2.125078 -0.12883697
0.15685546 2.126504 -0.12897858
0.18335937 2.1291015 -0.12926285
0.2099414 2.1313672 -0.12954788
0.31705078 2.1372657 -0.1306958
0.398125 2.138281 -0.13156433
0.42527342 2.1379492 -0.13185501
0.43886718 2.1376562 -0.13200027
0.47972655 2.1362696 -0.1324379
0.52066404 2.1341016 -0.13287598
0.54802734 2.1322656 -0.13316849
0.56171876 2.1311913 -0.13331482
0.5754101 2.130039 -0.13346115
0.60285157 2.1274805 -0.13375458
0.6165625 2.126074 -0.13390136
0.63029295 2.1245704 -0.134048
0.65773433 2.1213086 -0.13434143
0.69896483 2.1157618 -0.1347821
0.71271485 2.1137304 -0.1349289
0.7264453 2.1116211 -0.13507584
0.7401953 2.109414 -0.13522263
0.7814258 2.102246 -0.13566284
0.7951758 2.0996873 -0.13580978
0.80890626 2.097031 -0.13595642
0.8226562 2.0942774 -0.1361029
0.85011715 2.0885155 -0.13639617
0.8775586 2.0823827 -0.13668899
0.91867185 2.0725 -0.13712768
0.9323633 2.069043 -0.13727386
0.94605464 2.0654688 -0.13741958
0.9733789 2.0580664 -0.13771103
0.9870508 2.0542188 -0.13785659
1.0007031 2.0502734 -0.13800201
1.0279297 2.0421288 -0.13829239
1.0415429 2.0379295 -0.13843735
1.0822461 2.0247266 -0.138871
1.1632031 1.9958398 -0.13973327
1.1766406 1.9907031 -0.13987625
1.1900586 1.9854492 -0.14001893
1.2034179 1.9801172 -0.14016144
1.2167773 1.9747266 -0.14030349
1.2301366 1.9691992 -0.1404454
1.2434375 1.9635937 -0.140587
1.27 1.9520898 -0.1408696
1.2832227 1.9462109 -0.14101014
1.2964257 1.9402148 -0.14115067
1.3096093 1.9341797 -0.14129074
1.3358788 1.9217383 -0.14156997
1.3489453 1.9153906 -0.14170884
1.3620117 1.9089453 -0.14184768
1.3750585 1.9024218 -0.14198624
1.3880469 1.8957812 -0.14212403
1.4139258 1.8822265 -0.14239898
1.4396875 1.8683202 -0.14267257
1.4780469 1.8467578 -0.14307952
1.4907422 1.8393945 -0.14321457
1.5033984 1.8319141 -0.1433487
1.5160351 1.8243555 -0.14348297
1.5286132 1.8167187 -0.14361618
1.5411913 1.8089648 -0.14374939
1.5661328 1.7932227 -0.14401412
1.590918 1.7771094 -0.14427657
1.6155468 1.760625 -0.14453751
1.6399413 1.7437695 -0.14479613
1.6641601 1.726582 -0.14505233
1.688164 1.7090039 -0.14530669
1.7119726 1.6910741 -0.14555846
1.7238085 1.6820117 -0.1456839
1.7472851 1.6635742 -0.14593215
1.7705274 1.6447461 -0.14617783
1.7820703 1.6352344 -0.14629973
1.805 1.6159179 -0.14654206
1.8163671 1.6061132 -0.1466623
1.8501171 1.5762304 -0.14701843
1.8612499 1.5660937 -0.14713593
1.8723047 1.5558789 -0.14725265
1.8942382 1.5351952 -0.14748397
1.9158593 1.5141602 -0.14771225
1.9688281 1.4601758 -0.14827041
1.9895312 1.4380273 -0.14848831
1.9997656 1.4268359 -0.14859588
2.0099218 1.4155469 -0.14870284
2.02 1.4041992 -0.14880905
2.0595899 1.3579687 -0.14922531
2.088496 1.3225195 -0.1495288
2.0979688 1.3105469 -0.14962798
2.1258788 1.2741992 -0.1499211
2.1460352 -1.2331641 -0.14971572
2.1187303 -1.2699023 -0.14941742
2.1094725 -1.2820117 -0.14931625
2.1001368 -1.294043 -0.14921401
2.0907226 -1.3060156 -0.14911133
2.071621 -1.329707 -0.14890274
2.0522265 -1.3531054 -0.14869125
2.0325391 -1.3762109 -0.14847656
2.0024219 -1.4102539 -0.14814803
1.9507812 -1.4654101 -0.14758606
1.9402539 -1.476211 -0.14747146
1.9189647 -1.4975781 -0.14723998
1.8974023 -1.5185937 -0.14700562
1.8865625 -1.5289648 -0.14688751
1.8756444 -1.5392773 -0.14676864
1.8535546 -1.5596093 -0.14652893
1.8424219 -1.5696679 -0.14640823
1.83125 -1.5796288 -0.14628662
1.8199999 -1.5895116 -0.14616455
1.7973046 -1.6090039 -0.14591843
1.7744141 -1.628164 -0.14567016
1.7512695 -1.6469727 -0.14541931
1.7396289 -1.6562696 -0.14529282
1.7043555 -1.6835351 -0.14491057
1.6685938 -1.7100586 -0.14452331
1.656582 -1.7187109 -0.144393
1.6080469 -1.7524414 -0.1438675
1.5958008 -1.760664 -0.14373489
1.5711328 -1.7768164 -0.14346817
1.5587499 -1.784746 -0.1433342
1.5338281 -1.8003515 -0.14306487
1.5213085 -1.8080273 -0.14292938
1.50875 -1.8156054 -0.14279373
1.4708399 -1.8377734 -0.14238404
1.458164 -1.8449805 -0.14224686
1.4454101 -1.8520898 -0.14210922
1.4197851 -1.8660547 -0.14183258
1.3811328 -1.8863086 -0.14141525
1.3551757 -1.8993554 -0.14113525
1.342168 -1.9057422 -0.14099488
1.3160741 -1.9182031 -0.14071304
1.3029492 -1.9242969 -0.1405716
1.2766407 -1.9362304 -0.14028794
1.2634765 -1.9420507 -0.14014602
1.2370117 -1.9534374 -0.13986084
1.22375 -1.9590038 -0.13971786
1.2104688 -1.9644336 -0.13957459
1.1838281 -1.9750977 -0.13928741
1.1704882 -1.9802538 -0.13914368
1.1571094 -1.9853516 -0.13899979
1.0764843 -2.0139453 -0.13813156
1.0629687 -2.018379 -0.13798599
1.0494531 -2.0227149 -0.13784057
1.035957 -2.026992 -0.13769516
1.0088671 -2.0352342 -0.13740371
0.99529296 -2.0392187 -0.13725768
0.94091797 -2.0542383 -0.13667312
0.91367185 -2.0612109 -0.1363803
0.90005857 -2.0645506 -0.13623352
0.88640624 -2.0678124 -0.13608703
0.818125 -2.0827343 -0.13535324
0.80445313 -2.0854492 -0.13520645
0.79078126 -2.088086 -0.13505982
0.7771094 -2.090625 -0.13491271
0.7634375 -2.0930665 -0.13476592
0.7224219 -2.0998828 -0.13432556
0.6950586 -2.1039844 -0.13403183
0.68140626 -2.1058984 -0.13388534
0.6540625 -2.1094725 -0.13359207
0.64039063 -2.1111133 -0.13344528
0.6267578 -2.1126952 -0.13329895
0.59947264 -2.1155663 -0.13300613
0.57220703 -2.1181054 -0.13271393
0.5585742 -2.1192381 -0.1325679
0.5449609 -2.120293 -0.13242203
0.5313672 -2.12125 -0.132276
0.49058592 -2.1236327 -0.13183899
0.47703123 -2.1242578 -0.13169357
0.46347654 -2.1247852 -0.1315483
0.44992188 -2.1252344 -0.1314032
0.4228906 -2.1258984 -0.13111359
0.40937498 -2.1260936 -0.13096893
0.3689453 -2.1262305 -0.13053603
0.3420703 -2.1258984 -0.13024826
0.32867187 -2.125625 -0.13010453
0.27517578 -2.1236718 -0.12953201
0.26185545 -2.1229687 -0.1293898
0.24855468 -2.1221874 -0.12924728
0.20875 -2.1193945 -0.12882186
0.16916016 -2.1158984 -0.12839814
0.1428711 -2.113203 -0.12811722
0.1297461 -2.1117382 -0.12797698
0.103593744 -2.1085546 -0.12769745
0.07751953 -2.105078 -0.12741898
0.06453125 -2.103203 -0.12728012
0.051601563 -2.101289 -0.12714171
1.953125e-05 -2.092793 -0.12659088
-0.0128125 -2.0904882 -0.12645386
-0.08917969 -2.0751562 -0.12563872
-0.10179687 -2.0723243 -0.125504
-0.12693359 -2.0665038 -0.12523575
-0.15197265 -2.0603712 -0.124968566
-0.18927734 -2.0506835 -0.124570765
-0.20164062 -2.0473242 -0.12443908
-0.22625 -2.0403905 -0.12417648
-0.2629492 -2.029453 -0.123785704
-0.2751172 -2.0256836 -0.123656005
-0.28722656 -2.0218358 -0.12352676
-0.33537108 -2.0058203 -0.12301406
-0.35921875 -1.9974219 -0.12276016
-0.3710742 -1.993125 -0.122633666
-0.38291016 -1.9887695 -0.12250778
-0.4064453 -1.9798633 -0.12225723
-0.41816404 -1.9753125 -0.12213256
-0.42984375 -1.9706836 -0.122008204
-0.44148436 -1.9660351 -0.12188431
-0.4530664 -1.961289 -0.12176102
-0.47615233 -1.9516406 -0.1215155
-0.48763672 -1.9467187 -0.12139343
-0.51044923 -1.9366992 -0.121150665
-0.5217969 -1.9316211 -0.121029966
-0.53310543 -1.9264452 -0.12090988
-0.5443945 -1.92125 -0.12078964
-0.5779492 -1.9052539 -0.1204332
-0.60011715 -1.8942969 -0.12019775
-0.6111328 -1.88875 -0.12008056
-0.62210935 -1.8831445 -0.11996414
-0.66554683 -1.8600976 -0.11950256
-0.6763086 -1.8542187 -0.11938858
-0.6870117 -1.8482813 -0.1192749
-0.6976953 -1.8422852 -0.11916168
-0.7188867 -1.8301171 -0.11893676
-0.72941405 -1.8239648 -0.11882507
-0.7607422 -1.8051758 -0.11849274
-0.7710937 -1.7988086 -0.11838287
-0.7916211 -1.7859179 -0.11816513
-0.84218746 -1.752793 -0.11762909
-0.8719726 -1.7323437 -0.117313534
-0.9492578 -1.675703 -0.11649551
-0.95869136 -1.6683984 -0.11639556
-0.98673826 -1.6462694 -0.11609909
-0.99597657 -1.6388086 -0.116001435
-1.0143359 -1.62375 -0.11580734
-1.0324609 -1.6084961 -0.115615994
-1.0504102 -1.5931054 -0.115426175
-1.1115625 -1.5378906 -0.114780575
-1.1200976 -1.5298241 -0.1146907
-1.1285937 -1.5217383 -0.114601135
-1.1370312 -1.5136132 -0.11451202
-1.1453906 -1.5054296 -0.11442383
-1.1702539 -1.4807031 -0.11416198
-1.1784179 -1.4723828 -0.11407577
-1.186543 -1.4640234 -0.11399032
-1.2026367 -1.4471874 -0.1138208
-1.2105664 -1.4387305 -0.113737024
-1.2184961 -1.4302343 -0.11365371
-1.2572656 -1.3871679 -0.113245696
-1.2648633 -1.378457 -0.11316589
-1.2724023 -1.369707 -0.113086544
-1.2873437 -1.3521289 -0.11292953
-1.3165624 -1.316543 -0.11262268
-1.3237109 -1.3075781 -0.112547755
-1.3378906 -1.2895312 -0.11239868
-1.3449023 -1.2804492 -0.11232513
-1.3587304 -1.262207 -0.112180024
-1.3723828 -1.2438672 -0.11203705
-1.3791211 -1.2346289 -0.1119664
-1.3924218 -1.2161132 -0.11182708
-1.4055274 -1.1974413 -0.11168991
-1.424746 -1.1692578 -0.11148865
-1.4373046 -1.150332 -0.11135757
-1.4434961 -1.1408398 -0.11129272
-1.4496288 -1.1313086 -0.11122894
-1.4557226 -1.1217188 -0.111165315
-1.4677148 -1.1025586 -0.111039884
-1.4736328 -1.0929297 -0.11097824
-1.4795117 -1.0832813 -0.1109169
-1.4852929 -1.0735937 -0.11085647
-1.4910351 -1.0638672 -0.1107965
-1.5135156 -1.0247852 -0.11056259
-1.5297656 -0.9952344 -0.11039367
-1.540332 -0.97541016 -0.11028366
-1.5657617 -0.92546874 -0.110019684
-1.5755469 -0.9053515 -0.10991821
-1.580371 -0.8952539 -0.10986847
-1.5851171 -0.8851562 -0.10981918
-1.5944726 -0.8648633 -0.10972244
-1.5990429 -0.85472655 -0.10967514
-1.6080469 -0.8343359 -0.109582216
-1.6377734 -0.76236326 -0.10927566
-1.6418164 -0.7520117 -0.10923431
-1.6457812 -0.7416406 -0.10919372
-1.6496874 -0.73126954 -0.10915344
-1.6647851 -0.6895703 -0.108998716
-1.6684179 -0.6791211 -0.108961634
-1.6720117 -0.6686328 -0.10892517
-1.6823828 -0.63710934 -0.108819276
-1.6857226 -0.626582 -0.10878509
-1.6890234 -0.6160742 -0.10875152
-1.6922656 -0.6055078 -0.10871887
-1.6954492 -0.5949414 -0.10868652
-1.7016406 -0.57374996 -0.10862381
-1.7075976 -0.5525195 -0.108563386
-1.7104882 -0.541875 -0.10853424
-1.7133398 -0.53123045 -0.1085054
-1.7161132 -0.5205664 -0.10847763
-1.7215039 -0.49923828 -0.10842346
-1.7266797 -0.47783202 -0.10837143
-1.7316406 -0.45640624 -0.10832229
-1.7340429 -0.44566405 -0.10829834
-1.7430273 -0.40265623 -0.10820938
-1.7451172 -0.39185545 -0.10818878
-1.7510742 -0.35949218 -0.10813019
-1.7529492 -0.3486914 -0.10811203
-1.7547656 -0.33787107 -0.10809448
-1.7614844 -0.29453126 -0.108029634
-1.7659374 -0.26195312 -0.10798767
-1.7672851 -0.25107422 -0.10797485
-1.7685937 -0.2401953 -0.107962646
-1.7732421 -0.19664063 -0.10792007
-1.7769922 -0.15302734 -0.10788742
-1.7777929 -0.14208984 -0.107880704
-1.7798241 -0.10933594 -0.10786422
-1.7803906 -0.09841797 -0.1078601
-1.7809179 -0.0875 -0.10785614
-1.7813672 -0.0765625 -0.10785324
-1.7821094 -0.0546875 -0.10784912
-1.7824023 -0.04375 -0.1078479
-1.4233594 1.953125e-05 -0.111699976
-1.4233398 0.00875 -0.1117015
-1.4233007 0.017480468 -0.11170364
-1.4231836 0.026210938 -0.111706086
-1.4228516 0.043671872 -0.11171264
-1.4223046 0.061152343 -0.11172149
-1.4201562 0.104765624 -0.11175201
-1.4195898 0.11347656 -0.111759335
-1.4189453 0.122187495 -0.111767575
-1.4183007 0.13091797 -0.11177627
-1.4175781 0.13960937 -0.11178528
-1.4168164 0.14833984 -0.11179489
-1.4142382 0.17443359 -0.111826934
-1.41125 0.2005078 -0.1118631
-1.4101562 0.20917968 -0.11187637
-1.4090234 0.21785156 -0.11188995
-1.407832 0.22652343 -0.11190429
-1.405332 0.24384765 -0.11193405
-1.4040039 0.2525 -0.111949615
-1.4026171 0.26115233 -0.111965634
-1.4012109 0.2698047 -0.11198242
-1.3997461 0.2784375 -0.11199951
-1.3966601 0.2957031 -0.11203552
-1.3950585 0.3043164 -0.11205398
-1.393418 0.31291014 -0.11207321
-1.3899413 0.33011717 -0.112113036
-1.3824804 0.364375 -0.11219879
-1.3784765 0.38148436 -0.11224457
-1.3763866 0.39 -0.112268366
-1.3698828 0.41554686 -0.11234222
-1.3676171 0.4240625 -0.11236801
-1.3653125 0.43251953 -0.112393945
-1.3629687 0.4410156 -0.11242065
-1.3605468 0.44947264 -0.11244812
-1.3581054 0.45792967 -0.11247558
-1.3556055 0.4663672 -0.11250366
-1.3530663 0.47480467 -0.1125325
-1.3424219 0.5083984 -0.112651825
-1.3396679 0.51677734 -0.1126831
-1.3368554 0.5251367 -0.11271454
-1.3339844 0.53347653 -0.11274658
-1.3310742 0.5418164 -0.11277939
-1.3158008 0.5832422 -0.11294968
-1.3027734 0.61615235 -0.113094784
-1.2993749 0.62435544 -0.11313248
-1.295957 0.63251954 -0.11317047
-1.2925 0.6406836 -0.11320892
-1.2889843 0.6488086 -0.11324768
-1.2818359 0.66505855 -0.11332733
-1.278164 0.67316407 -0.11336761
-1.2669727 0.6973242 -0.11349182
-1.263125 0.70535153 -0.113534234
-1.255332 0.72134763 -0.11362045
-1.2513672 0.7293359 -0.11366424
-1.2391796 0.753125 -0.11379867
-1.235039 0.7610156 -0.1138443
-1.2308398 0.7688867 -0.113890685
-1.2266015 0.7767578 -0.11393722
-1.2223047 0.7845898 -0.113984674
-1.2179883 0.7924023 -0.114032134
-1.2136133 0.8001953 -0.11408035
-1.204746 0.81572264 -0.11417785
-1.2002343 0.823457 -0.114227444
-1.1957031 0.8311719 -0.114277646
-1.1910937 0.8388672 -0.11432815
-1.1864452 0.8465234 -0.11437897
-1.1817578 0.8541797 -0.11443054
-1.1770313 0.86179686 -0.11448242
-1.1674414 0.87699217 -0.1145877
-1.1625781 0.88455075 -0.11464096
-1.1527344 0.8996093 -0.11474914
-1.1426953 0.9145508 -0.11485916
-1.1324805 0.92941403 -0.114971004
-1.1220899 0.94417965 -0.115084685
-1.1115429 0.9588281 -0.11520019
-1.1008008 0.9733984 -0.11531738
-1.0953711 0.9806445 -0.11537673
-1.0899023 0.98785156 -0.1154364
-1.0843945 0.99503905 -0.11549682
-1.0675976 1.0164453 -0.11568023
-1.0561719 1.0305859 -0.115804896
-1.0504102 1.0376172 -0.11586792
-1.0445899 1.0445899 -0.11593155
-1.0387305 1.051543 -0.115995325
-1.032832 1.0584961 -0.11605972
-1.0268945 1.0654101 -0.116124265
-1.0148828 1.0791405 -0.116255336
-1.0026953 1.0927539 -0.11638809
-0.9965625 1.0995312 -0.11645492
-0.9841211 1.1129687 -0.11659042
-0.977832 1.1196485 -0.11665878
-0.96517575 1.1328906 -0.11679672
-0.9458594 1.1525586 -0.11700668
-0.9128515 1.1846288 -0.11736572
-0.9061328 1.190957 -0.11743866
-0.88572264 1.2097266 -0.117660366
-0.87884766 1.2158984 -0.11773498
-0.8649609 1.2281641 -0.117885895
-0.8367383 1.2522656 -0.11819214
-0.8295703 1.2582226 -0.11826965
-0.8223828 1.264121 -0.11834778
-0.8078711 1.2757813 -0.11850509
-0.8005664 1.281582 -0.11858429
-0.77841794 1.2987305 -0.11882431
-0.763457 1.309961 -0.11898651
-0.75593746 1.3155273 -0.119068146
-0.7483594 1.3210351 -0.11915008
-0.7331055 1.3319726 -0.11931533
-0.72541016 1.3373632 -0.1193985
-0.71771485 1.3427343 -0.119482115
-0.6785742 1.3689648 -0.119905084
-0.6304492 1.3990625 -0.12042557
-0.6141406 1.4087499 -0.12060211
-0.59767574 1.4182812 -0.12077987
-0.5893945 1.4229687 -0.120869294
-0.5727539 1.432207 -0.12104904
-0.555957 1.4413086 -0.12123047
-0.5475195 1.4457617 -0.12132156
-0.53904295 1.4501953 -0.12141296
-0.49619138 1.4716406 -0.12187546
-0.4788281 1.4798633 -0.12206299
-0.47009763 1.4839453 -0.122157134
-0.45255858 1.4918945 -0.122346185
-0.44373047 1.4958203 -0.1224414
-0.4259961 1.5034765 -0.12263259
-0.41710937 1.5072266 -0.12272857
-0.40816405 1.510957 -0.122824855
-0.3901953 1.5182421 -0.12301849
-0.3721289 1.5253124 -0.123213194
-0.36304685 1.5287695 -0.1233107
-0.3539453 1.5321875 -0.123408966
-0.33566406 1.5388671 -0.12360611
-0.32646483 1.5421484 -0.123704985
-0.2801367 1.5576757 -0.124203645
-0.27080077 1.5606445 -0.12430404
-0.25203124 1.5663867 -0.12450607
-0.20470703 1.5798242 -0.12501526
-0.19517578 1.5823437 -0.1251178
-0.16640624 1.5895703 -0.12542693
-0.14712891 1.5941406 -0.12563415
-0.13746093 1.5963476 -0.1257379
-0.11804687 1.6005468 -0.12594634
-0.10832031 1.602578 -0.12605102
-0.09857421 1.6045312 -0.12615585
-0.07900391 1.6083202 -0.12636596
-0.039648436 1.6151562 -0.12678863
-0.019863281 1.6182226 -0.12700103
0.07003906 1.6291211 -0.12796539
0.09015625 1.6308789 -0.12818131
0.1002539 1.6316797 -0.12828949
0.14074218 1.6342382 -0.1287233
0.1508789 1.6347265 -0.12883209
0.16107422 1.6351562 -0.1289412
0.17123047 1.6355078 -0.12905014
0.18142578 1.6358203 -0.12915939
0.20183593 1.6362109 -0.1293779
0.21205078 1.6363477 -0.12948714
0.23248047 1.6363672 -0.12970626
0.24271484 1.6363086 -0.12981582
0.25296876 1.6361718 -0.12992568
0.2632422 1.635957 -0.1300357
0.2734961 1.6357031 -0.13014527
0.2940625 1.6349804 -0.1303653
0.32492188 1.633418 -0.13069549
0.33521482 1.6327538 -0.13080582
0.36611328 1.6304296 -0.13113631
0.3764453 1.6295117 -0.13124664
0.3867578 1.6285547 -0.13135712
0.39708984 1.6275195 -0.13146728
0.40740234 1.6264062 -0.13157776
0.41771483 1.6252344 -0.13168792
0.4383789 1.6227148 -0.13190871
0.4486914 1.6213477 -0.13201904
0.45902342 1.6199023 -0.13212952
0.4693359 1.618418 -0.13223954
0.47966796 1.6168554 -0.13234985
0.5002734 1.6135156 -0.13257034
0.51060545 1.6117578 -0.13268065
0.52091795 1.6099414 -0.13279067
0.5621289 1.601953 -0.13323043
0.57242185 1.5997851 -0.1333403
0.58271486 1.5975586 -0.13344985
0.59298825 1.5952734 -0.13355972
0.6237891 1.5879883 -0.13388824
0.634043 1.5854101 -0.1339978
0.6442578 1.5827734 -0.1341069
0.664707 1.5773242 -0.13432495
0.6749219 1.5744921 -0.13443375
0.7055078 1.5655859 -0.13475952
0.7156836 1.5624609 -0.13486816
0.7663281 1.545957 -0.13540772
0.7763867 1.5424414 -0.13551514
0.826582 1.5238867 -0.13604935
0.84654295 1.5159961 -0.1362619
0.8565039 1.5119336 -0.13636765
0.8664453 1.5078125 -0.13647354
0.87636715 1.5036328 -0.13657898
0.905957 1.4906836 -0.13689362
0.9158203 1.4862305 -0.13699844
0.9256055 1.4817187 -0.13710266
0.9353906 1.4771093 -0.13720672
0.9451367 1.4724609 -0.13731018
0.96458983 1.4629687 -0.13751678
1.0223438 1.432832 -0.13813019
1.0318555 1.4275781 -0.1382312
1.0508202 1.4168555 -0.13843246
1.0602539 1.4114062 -0.13853271
1.0790429 1.4003124 -0.13873199
1.0977148 1.3889258 -0.13893005
1.1254687 1.3713866 -0.1392244
1.134668 1.3654101 -0.13932174
1.1438282 1.359375 -0.1394188
1.1620312 1.3470898 -0.13961166
1.206875 1.315293 -0.14008681
1.2333593 1.2954297 -0.14036697
1.2508007 1.281875 -0.14055145
1.3105469 1.2324804 -0.141183
1.3355078 1.2104492 -0.14144653
1.3437109 1.2029492 -0.1415332
1.360039 1.187832 -0.14170532
1.368125 1.1801562 -0.14179061
1.3920898 1.1568164 -0.1420433
1.3999804 1.1489453 -0.14212662
1.4233594 1.1249218 -0.14237289
1.4310547 1.1168164 -0.14245376
1.4386718 1.1086328 -0.14253418
1.4462695 1.1003906 -0.14261398
1.4538085 1.0921093 -0.14269318
1.4760938 1.0669141 -0.1429277
1.4833789 1.0583984 -0.14300445
1.5191406 1.0150391 -0.14338027
1.5466992 0.9794336 -0.14366928
1.5534375 0.9703906 -0.14373992
1.5601367 0.9613281 -0.14381012
1.5667578 0.952207 -0.1438794
1.5733398 0.9430273 -0.14394821
1.5926367 0.91517574 -0.14415054
1.5989648 0.90580076 -0.14421646
1.6052148 0.8963867 -0.14428192
1.6296093 0.85824215 -0.14453673
1.6355273 0.8485742 -0.1445987
1.6414062 0.8388867 -0.14465988
1.6586328 0.8095117 -0.14483948
1.6697656 0.7897461 -0.14495544
1.6806445 0.76980466 -0.14506851
1.69125 0.7496875 -0.14517868
1.6964648 0.73955077 -0.14523284
1.7066602 0.71921873 -0.14533843
1.7165625 0.69873047 -0.14544113
1.7308984 0.6676758 -0.14558929
1.7355273 0.6572656 -0.14563736
1.7445898 0.6363281 -0.14573058
1.7533593 0.61525387 -0.14582123
1.7659179 0.5833984 -0.14595047
1.7699609 0.5727148 -0.14599213
1.7778516 0.55125 -0.14607269
1.7816796 0.54046875 -0.1461119
1.7854296 0.5296484 -0.1461502
1.7891015 0.5188281 -0.14618774
1.7927148 0.5079687 -0.14622466
1.7962304 0.49708983 -0.14626053
1.7996875 0.48617187 -0.14629562
1.8030664 0.47523436 -0.14632995
1.8063476 0.46427733 -0.14636321
1.8187499 0.42017576 -0.14648865
1.8216602 0.40908203 -0.14651795
1.8245116 0.39796874 -0.14654647
1.8272656 0.38683593 -0.1465741
1.8299218 0.37568358 -0.14660065
1.835039 0.35333982 -0.14665176
1.8374609 0.34210938 -0.14667602
1.8464258 0.29708984 -0.14676422
1.8484765 0.28578123 -0.14678437
1.8523047 0.26314452 -0.14682159
1.8541211 0.2518164 -0.146839
1.8605077 0.20634764 -0.14689972
1.861914 0.1949414 -0.14691284
1.8644531 0.17208984 -0.14693618
1.8656055 0.16066405 -0.14694671
1.8666797 0.14921875 -0.14695632
1.8693945 0.11484375 -0.14697967
1.8701562 0.103398435 -0.14698577
1.8714062 0.08042969 -0.14699523
1.8718945 0.06894531 -0.1469989
1.8723242 0.057460938 -0.14700134
1.8726562 0.04595703 -0.14700317
1.8729101 0.034472656 -0.14700362
1.8730859 0.02298828 -0.14700362
1.873125 -0.0114648435 -0.14699829
1.8727539 -0.034453124 -0.14699066
1.8724219 -0.04595703 -0.14698501
1.8703516 -0.091874994 -0.14695525
1.8696483 -0.10333984 -0.14694564
1.868828 -0.114804685 -0.14693512
1.8679491 -0.12626953 -0.14692351
1.8659375 -0.14916015 -0.1468982
1.8648242 -0.16058594 -0.1468843
1.8623241 -0.18341796 -0.14685379
1.8609375 -0.19482422 -0.146837
1.8528711 -0.25164062 -0.14674102
1.849082 -0.27427733 -0.14669678
1.8470702 -0.2855664 -0.14667328
