VERSION 0.7
FIELDS x y z
SIZE 4 4 4
TYPE F F F
COUNT 1 1 1
WIDTH 1495
HEIGHT 1
VIEWPOINT 0.0 0.0 0.0 1.0 0.0 0.0 0.0
POINTS 1495
DATA ascii
-9.599453 9.139472 0.6232769
-9.472051 9.242383 0.6223232
-9.468242 9.352774 0.6258292
-9.456562 9.691563 0.6367427
-9.083398 11.787754 0.6997885
-8.857422 11.790996 0.6934764
-8.619102 11.771835 0.6860788
-7.6452928 11.751738 0.6592767
-5.8743944 11.670507 0.6143974
-4.3181834 11.617148 0.5828046
-3.834668 11.607773 0.5748597
-1.6742969 6.514355 0.31628785
-1.6067382 6.4145117 0.3109551
-1.5414257 6.317969 0.30581057
-1.4908203 6.2774997 0.3034033
-1.4550781 6.2986913 0.30399156
-1.4195312 6.321484 0.30466446
-1.383828 6.344336 0.30535218
-1.3479882 6.3673043 0.3060537
-1.3119531 6.3903904 0.30677
-1.0920312 6.5311327 0.31138402
-1.0547265 6.5549803 0.31220692
-1.0171875 6.5789647 0.31304666
-0.9415429 6.6273046 0.314773
-0.78767574 6.7255664 0.3184261
-0.6698633 6.801289 0.32137328
-0.6301562 6.827129 0.32240385
-0.5093945 6.9056053 0.32561287
-0.46859375 6.932129 0.32672164
-0.42751953 6.958828 0.32785034
-0.38617188 6.985703 0.3289991
-0.2177539 7.0951757 0.33380172
0.7739844 11.449726 0.539643
2.7034373 11.383574 0.5501909
3.748789 11.347734 0.5619809
4.2121677 11.331836 0.5684895
2.8426952 6.5207615 0.334505
2.9234178 6.3825192 0.3301177
2.9510937 6.3399415 0.3288456
3.1909764 6.1503124 0.32582298
3.2640429 6.197793 0.3293931
3.3387303 6.2463474 0.3330555
3.4150975 6.2959766 0.33681318
3.7386913 6.5063477 0.35286963
3.9124217 6.619238 0.36157042
4.0025196 6.6778126 0.36610487
4.1897264 6.799492 0.37556633
7.3994727 11.222539 0.6321134
8.094414 11.19871 0.6497675
9.513984 11.167207 0.689872
10.580878 11.113418 0.72157586
10.964883 11.100273 0.7337044
12.338633 11.045957 0.7787498
5.402988 4.6606836 0.33553672
5.4070115 4.606582 0.33402532
7.7603316 6.210957 0.4674089
7.793613 6.159531 0.4671276
5.3908787 4.2071095 0.3215628
7.9278316 5.955449 0.46627074
3.0483007 1.3067187 0.15595937
3.0454493 1.2834179 0.15540658
3.026543 0.7977148 0.14718175
3.0370116 0.7607422 0.14722605
3.0690234 0.7487891 0.14854848
3.0161912 0.31578124 0.14260866
3.0077147 0.29623047 0.14211991
3.0193553 0.26 0.14250891
2.9983592 -0.18419921 0.14126131
2.991211 -0.220625 0.14104192
2.9729297 -0.7059961 0.14368787
2.981992 -1.1713476 0.15065679
2.9648633 -1.185664 0.1501568
2.996543 -1.6733203 0.1613928
2.9452538 -1.6924024 0.15973565
2.9431834 -1.7153125 0.16019064
8.579609 -6.2013474 0.4978044
8.345508 -6.189453 0.48859176
8.285566 -6.22416 0.48730987
8.350195 -6.353242 0.49339378
4.4922853 -4.4922657 0.29874623
4.435449 -4.490215 0.29679525
4.3240232 -4.486211 0.29300115
4.2443357 -4.5131054 0.29133284
4.2389064 -4.676953 0.29682058
4.23707 -4.7329297 0.2987183
8.688672 -11.566328 0.680266
8.215567 -11.366328 0.6594953
8.146641 -11.4178705 0.65957487
7.825957 -11.406796 0.65050095
7.7209764 -11.403183 0.6475804
7.616953 -11.39959 0.6447101
7.3068357 -11.383574 0.636089
7.230996 -11.418964 0.6355749
7.079687 -11.48959 0.63462317
7.004199 -11.524843 0.634184
6.911582 -11.531269 0.6321918
6.8647656 -11.778554 0.6410817
6.739707 -11.897245 0.64299345
5.653379 -10.123945 0.54526746
5.502734 -10.144649 0.54270184
5.4980664 -10.286133 0.54845905
5.483789 -10.72996 0.56664604
5.3208203 -11.249941 0.58520573
5.2353907 -11.247343 0.58338803
5.0660934 -11.2421875 0.57985234
4.8987694 -11.237089 0.57644665
4.815879 -11.23459 0.57478946
4.1731052 -10.074824 0.5127956
4.099746 -10.071992 0.51136
3.8108203 -10.062636 0.50598204
3.7758985 -10.158222 0.5096131
3.7700195 -10.336152 0.5173698
3.7517772 -10.905644 0.54232866
3.7450585 -11.107187 0.5511978
3.6994922 -11.198496 0.5545925
3.469453 -11.189629 0.5508958
3.2424023 -11.18086 0.5474344
3.0925586 -11.175077 0.5452503
3.0180664 -11.172207 0.5441975
2.943906 -11.169335 0.54316753
2.8699803 -11.166484 0.54216343
2.2546484 -10.336621 0.49749756
2.2450585 -10.604785 0.50973403
2.2350194 -10.8866205 0.52261215
2.224375 -11.182636 0.5361572
2.201328 -11.823281 0.5655352
2.1754882 -12.537559 0.5983771
2.0203514 -12.556542 0.59805465
1.9409765 -12.553789 0.5973473
1.8617773 -12.551054 0.59666264
1.5873437 -12.250625 0.58089006
1.5106446 -12.247969 0.58031476
1.1531836 -11.708476 0.55324566
1.0767969 -11.6663475 0.5509336
0.9742773 -11.313535 0.5339789
0.90486324 -11.319629 0.53399414
0.8320117 -11.279297 0.53184026
0.7597461 -11.239277 0.5297247
0.6169336 -11.160175 0.5256005
0.5463476 -11.121094 0.5235916
0.47443357 -11.0394335 0.51959914
0.20515625 -11.143808 0.5241172
0.13673829 -11.141445 0.5239577
0.06833984 -11.139082 0.5238169
0.0 -11.136738 0.52369714
-0.06832031 -11.134375 0.52359563
-0.2048828 -11.129667 0.523452
-0.27316406 -11.127304 0.5234111
-0.33771485 -11.00416 0.51770586
-0.405625 -11.012519 0.5182063
-0.54660153 -11.126288 0.5238367
-0.7588281 -11.225351 0.52906716
-0.8305078 -11.258808 0.5308753
-0.9947461 -11.551367 0.5452045
-1.1583399 -11.760938 0.5557248
-1.7998828 -12.13373 0.5768223
-1.9515039 -12.128496 0.5776687
-2.0274804 -12.125878 0.57812536
-2.2744727 -11.81291 0.56569654
-2.4809766 -11.71916 0.5632982
-2.537832 -11.634902 0.55998826
-2.5849023 -11.511152 0.5547845
-2.704492 -11.388046 0.55040795
-2.784121 -11.114707 0.5388091
-3.4711523 -10.956914 0.54047734
-3.5444727 -10.954374 0.5414157
-3.6180077 -10.951836 0.5423776
-3.7659373 -10.946738 0.5443714
-3.9149609 -10.941602 0.5464645
-4.09791 -10.820624 0.5440954
-4.208652 -10.910546 0.54990804
-4.3030663 -10.95459 0.5534471
-4.5797653 -11.056542 0.562759
-5.0282617 -11.730039 0.6001388
-5.4116797 -12.009101 0.6194087
-5.783027 -12.227168 0.6360428
-5.8947654 -11.892012 0.624144
-5.888203 -11.697832 0.6158368
-5.8758593 -11.325078 0.59996617
-5.8699217 -11.145801 0.59236616
-5.8641405 -10.971015 0.5849774
-3.3062108 -5.8362694 0.31542438
-3.3595312 -5.8464255 0.31708124
-3.4133787 -5.856699 0.31876832
-3.4678319 -5.86707 0.32048437
-3.4633985 -5.778281 0.31678957
-3.4677148 -5.70582 0.3139762
-3.5922656 -5.8298435 0.32200903
-3.6187694 -5.7929688 0.32119346
-3.638828 -5.7463083 0.3198375
-3.6587303 -5.7000585 0.3185059
-3.6784375 -5.6541405 0.31719664
-3.7188475 -5.565605 0.3147663
-7.3696094 -10.601602 0.6071508
-7.3490624 -10.037168 0.5849804
-7.3440037 -9.902187 0.5797308
-7.4984374 -9.608339 0.57313097
-7.5910935 -9.60498 0.57569754
-7.6849804 -9.60207 0.5783376
-8.93666 -10.889356 0.6624282
-9.045547 -10.885137 0.6655348
-9.103926 -10.819629 0.6649331
-9.094004 -10.5425 0.6547103
-9.069961 -9.884589 0.6308417
-9.065449 -9.75875 0.6263501
-9.094024 -9.551719 0.62017906
-9.202188 -9.547324 0.6235482
-1.977207 -1.5626367 0.11850954
-1.9791796 -1.5058398 0.116944596
-1.9160156 1.4028906 0.069096126
-1.8808788 1.4129492 0.068449534
-1.8692578 1.4222265 0.068342224
-1.8608203 1.4339257 0.068354964
-9.599472 9.139453 0.3856639
-9.464257 9.464238 0.38944793
-8.063281 11.752773 0.41471472
-6.637676 11.717226 0.39183998
-5.252695 11.656386 0.37201208
-4.318164 11.617128 0.36061957
-3.3614647 11.591542 0.35117438
-2.8217578 11.56582 0.34640068
-1.5010742 6.6846094 0.19934492
-1.3736328 6.488535 0.19298024
-1.3291601 6.4741993 0.1923071
-1.292539 6.497988 0.19277413
-1.8567578 11.539941 0.34009558
-0.66404295 7.194375 0.21022402
-0.61275387 7.115488 0.20780447
-0.56263673 7.0383787 0.20544714
-0.5165234 7.0023828 0.20430166
-0.47515625 7.0292773 0.20499651
-0.28193358 11.485957 0.33430663
0.21101563 11.461816 0.33356032
0.7035742 11.4521675 0.3338501
1.6926757 11.4110155 0.33565888
3.2185352 11.358691 0.3435128
4.2121677 11.331836 0.35176367
5.2634373 11.307617 0.36291397
3.098828 6.5519333 0.21088846
3.127207 6.508301 0.2100979
3.2385936 6.336914 0.2070691
3.272832 6.308086 0.20677945
3.345254 6.3520117 0.20888455
3.9092577 7.102656 0.23590021
3.9399023 7.055527 0.23513345
3.9703515 7.008652 0.23437944
4.030664 6.915859 0.23291264
6.832285 11.241972 0.3827787
7.018652 11.235605 0.3854666
7.7869725 11.202031 0.39695892
8.4045315 11.1880665 0.40715942
8.615723 11.18082 0.41071188
9.266699 11.151269 0.42186698
10.097929 11.141367 0.43751854
10.828632 11.097734 0.45116043
12.338633 11.045957 0.48186406
5.403027 4.6607227 0.20762044
13.113984 11.034472 0.4986855
7.817422 6.4156246 0.29425696
7.857285 6.3680077 0.29427996
5.3909373 4.2071486 0.1989731
8.09 6.0772653 0.2944141
16.336992 10.916035 0.57170784
17.89873 10.87793 0.60945135
18.341465 10.841055 0.61993665
19.886757 10.787109 0.65825635
20.185293 10.789238 0.66593957
12.791797 6.537539 0.41799468
12.28875 6.1856446 0.40030944
12.331367 6.112578 0.40046966
12.470722 5.8982224 0.40140006
3.0474024 1.3285351 0.096730284
3.0324414 1.2999219 0.09600027
3.0961914 1.238203 0.09702657
26.853281 10.548223 0.8394681
3.019043 0.8155859 0.09099382
3.0236132 0.7573828 0.09069639
3.0412304 0.7419922 0.0910864
21.931503 3.667031 0.6469994
3.0180273 0.3346875 0.08835321
2.9965625 0.27660155 0.0875614
3.0236914 0.24171874 0.08826128
2.9655273 -0.6850586 0.08856073
2.9733984 -0.74478513 0.08918947
19.436504 -5.3788085 0.58679914
19.449432 -5.6402345 0.58923376
20.937069 -6.774453 0.64030206
20.93283 -6.9152536 0.6414588
2.9666991 -1.1653125 0.09274236
2.9523437 -1.1806641 0.09251855
2.9453516 -1.1988672 0.09252893
2.9686522 -1.6577344 0.09893381
25.58662 -15.9834175 0.87781453
25.220682 -15.9708 0.86859936
24.614199 -16.229082 0.85785687
24.606855 -16.441776 0.8611097
24.113886 -16.544004 0.8508997
23.783125 -16.532578 0.84279007
23.458553 -16.521387 0.83486354
8.700371 -6.2077146 0.31098515
8.579961 -6.201582 0.30803728
8.262871 -6.2071095 0.3007056
8.392852 -6.467344 0.30829898
20.78787 -16.429218 0.7709605
20.515957 -16.419825 0.76459867
20.248476 -16.410604 0.75837165
19.985312 -16.401524 0.75226945
19.726387 -16.392578 0.7462963
19.471504 -16.38379 0.74044114
19.220566 -16.375135 0.73470384
18.973457 -16.366602 0.72908485
18.254238 -16.341778 0.71288735
17.566074 -16.318027 0.6976298
17.343164 -16.310331 0.6927363
16.906523 -16.295273 0.68322986
16.692656 -16.28789 0.6786148
4.4872656 -4.487246 0.18464772
4.430527 -4.4852343 0.18344267
4.374551 -4.4832616 0.18226053
4.232461 -4.727773 0.1846356
13.254726 -15.55789 0.59470123
13.085917 -15.55207 0.59140027
12.918964 -15.5463085 0.5881566
12.792011 -15.587109 0.586717
12.772226 -16.160664 0.5993549
8.688574 -11.566191 0.42091864
8.01957 -11.386914 0.40524954
7.9128513 -11.383144 0.40337813
7.598535 -11.371992 0.39795914
7.4376755 -11.280488 0.3931521
7.382793 -11.348184 0.39392555
7.306855 -11.383633 0.39359176
7.231035 -11.4190235 0.39327484
7.1553125 -11.454355 0.392973
6.920117 -11.707831 0.3957193
6.8648243 -11.778671 0.39668396
6.8044333 -11.841542 0.3973866
5.6587305 -10.133535 0.3377088
5.49791 -10.28584 0.33935493
5.493398 -10.430879 0.34302467
5.488945 -10.579336 0.34679502
5.4840426 -10.730469 0.35063627
5.4789844 -10.884863 0.35457626
5.4010935 -11.06623 0.3582975
5.1474805 -11.058516 0.3549208
5.064004 -11.055957 0.3538347
4.981035 -11.053437 0.35276976
4.8985353 -11.050938 0.35172278
4.7349997 -11.045957 0.34968954
4.1768556 -10.083828 0.31758484
4.030332 -10.078144 0.31582242
3.9578123 -10.075684 0.3149794
3.8858202 -10.073593 0.3141657
3.81416 -10.071524 0.31335965
3.651406 -10.829413 0.3325328
3.5766015 -10.826504 0.33176306
3.5021288 -10.823652 0.33100936
3.4280078 -10.820781 0.33027396
3.3541992 -10.817929 0.32955283
2.8460937 -10.79832 0.32492873
2.7034373 -10.792812 0.3237397
2.314668 -10.019707 0.29922158
2.2546093 -10.336465 0.30783162
2.2349803 -10.886426 0.32336944
2.224414 -11.18289 0.33176374
2.2132616 -11.495039 0.34061623
2.2014453 -11.823945 0.34995383
2.1889648 -12.171406 0.3598336
2.0203905 -12.556719 0.37006247
1.8617969 -12.5512495 0.3692003
1.7827734 -12.548535 0.36879143
1.3319336 -12.01041 0.3516097
1.247871 -11.91959 0.34871992
0.97425777 -11.313398 0.33040535
0.90484375 -11.3195505 0.33041495
0.5463281 -11.121035 0.32397985
0.47443357 -11.039413 0.32151052
0.3421289 -11.148535 0.32454148
0.0 -11.136719 0.32404608
-0.06832031 -11.134375 0.32398298
-0.13662109 -11.132011 0.3239324
-0.33771485 -11.00416 0.3203391
-0.405625 -11.012539 0.32064864
-0.47679687 -11.09375 0.32309362
-0.616875 -11.159141 0.32519317
-0.6876172 -11.192148 0.32627174
-0.7588281 -11.2254095 0.3273713
-0.8305078 -11.258867 0.32848793
-0.89904296 -11.246933 0.3282956
-1.0738086 -11.634043 0.3399556
-1.2425781 -11.869003 0.3472396
-1.7242383 -12.136328 0.3566767
-1.7998828 -12.13373 0.3569178
-1.9515039 -12.128496 0.35744286
-2.179824 -12.120625 0.35833305
-2.3477538 -11.80291 0.35015547
-2.4234178 -11.804238 0.3506327
-2.5378125 -11.634805 0.34649795
-2.5849218 -11.51123 0.34328476
-2.7044725 -11.38791 0.34057036
-2.7841406 -11.114863 0.33340093
-2.9821289 -11.039023 0.3327175
-3.1709569 -10.934453 0.33126694
-3.2205076 -10.855976 0.32948455
-3.3981054 -10.959434 0.33386338
-3.4711523 -10.956914 0.33443007
-3.5444531 -10.954374 0.33500907
-3.6830468 -10.923242 0.33541602
-3.7659373 -10.946738 0.33683968
-3.8403125 -10.9441595 0.337478
-3.9149609 -10.941602 0.33813316
-4.09791 -10.820624 0.336667
-4.303086 -10.954648 0.3424574
-4.3987303 -10.999296 0.34468803
-4.4956055 -11.044512 0.34696427
-5.3245897 -12.01209 0.38231498
-5.4116797 -12.009082 0.3832691
-5.8737106 -12.224257 0.39461875
-5.901113 -12.090722 0.39146972
-5.881836 -11.508808 0.376071
-5.869824 -11.145605 0.3665303
-5.864023 -10.9708 0.36195794
-5.8527536 -10.63373 0.3531791
-3.4211524 -5.9536915 0.19979875
-3.4600976 -5.936816 0.19994096
-3.4991014 -5.919922 0.20009187
-3.5509765 -5.842793 0.19894242
-3.6380076 -5.823789 0.19980124
-3.6642382 -5.632344 0.19551335
-3.68291 -5.585742 0.19467732
-7.0691013 -10.579609 0.37023124
-7.348398 -10.571133 0.37460425
-7.3643355 -10.456523 0.37213796
-7.3490624 -10.037148 0.36196434
-7.3437304 -9.901835 0.35870475
-7.4142575 -9.62166 0.3534385
-7.505937 -9.617969 0.35498938
-8.741543 -10.519278 0.39796996
-8.847754 -10.515176 0.39986166
-9.063281 -10.506875 0.4037429
-9.084296 -10.273555 0.39902884
-9.079473 -10.142012 0.39607763
-9.074726 -10.012403 0.3931833
-9.0649605 -9.758242 0.38754326
-9.212188 -9.5577345 0.38625044
-1.9590038 -1.528789 0.07230413
-1.9974608 -1.4813867 0.072360136
-2.0192382 -1.4783984 0.0728187
-6.9931054 -1.3464453 0.20721433
-6.878008 1.5889062 0.078981034
-6.8741403 1.6771289 0.079167
-1.9325781 1.396875 0.026679877
-1.8857812 1.3985937 0.026268749
-1.8726171 1.4067383 0.026204947
-1.861582 1.4163867 0.026171856
-1.853203 1.4280664 0.026176509
-1.8438281 1.4572461 0.026294746
-1.8462499 1.4776367 0.026458224
-1.8616992 1.508828 0.026811179
-9.599453 9.139453 0.14829412
-9.471797 9.242128 0.14806356
-9.467988 9.3525 0.14890027
-9.464121 9.464121 0.14974938
-9.460234 9.57705 0.15061384
-8.85707 11.790546 0.16499105
-8.733477 11.775781 0.16403009
-7.225488 11.7261715 0.15407842
-5.969805 11.681015 0.14677098
-5.874414 11.670507 0.14618158
-4.3181834 11.617128 0.13866568
-2.747793 11.570508 0.1330557
-1.4363476 6.585117 0.075408876
-1.3736719 6.488672 0.07420766
-1.2583008 6.535176 0.07446314
-1.277539 11.520098 0.1296803
-0.6640625 7.1945114 0.080837764
-0.6127734 7.115586 0.079906635
-0.56263673 7.038496 0.079000525
-0.47517577 7.029238 0.07882532
3.2185352 11.358691 0.13208337
3.2953124 11.3633 0.13237669
4.764453 11.305664 0.13726473
3.0988672 6.5520115 0.08109155
3.1553905 6.465039 0.080489404
3.1833398 6.422031 0.080196016
3.2728515 6.308086 0.07951002
3.9399414 7.055586 0.09041391
7.6926365 11.212481 0.15213606
7.8919334 11.205645 0.15334985
9.385644 11.154433 0.16310495
10.828652 11.097734 0.17348242
12.338633 11.045957 0.18528692
12.49418 11.047852 0.18660703
7.9780664 6.3052926 0.1137734
5.3909764 4.2072067 0.076510526
8.0462885 6.2003317 0.11365217
8.080352 6.1479297 0.11359823
15.337265 10.943125 0.21080194
18.1108 10.855234 0.23624292
18.341719 10.84121 0.23838106
18.614628 10.848945 0.24106672
19.886757 10.787109 0.25312424
21.056425 10.761367 0.26457158
13.380644 6.735254 0.1676048
12.547402 6.2196484 0.15668733
12.59457 6.147051 0.15680124
12.641835 6.0743356 0.15692282
12.68914 6.0015235 0.15705183
22.94873 10.682109 0.28321162
3.0229883 1.3178906 0.036897182
3.0170703 1.2933398 0.03672678
3.0198436 1.2726562 0.03666517
3.0281444 1.2543163 0.03667181
3.0654688 1.2259179 0.036938954
3.0173633 0.835039 0.035028744
3.0023632 0.7716992 0.034684084
3.010664 0.7541406 0.034725703
3.0248632 0.7380078 0.034836292
43.295116 10.0017185 0.4971627
47.899452 9.833731 0.54710275
33.02084 6.1480274 0.37580076
32.575447 5.858535 0.37031454
21.914726 3.6642187 0.2485938
21.909903 3.5253515 0.24828935
36.82957 5.4631834 0.41657433
36.895626 5.011035 0.41659322
41.8507 5.4227147 0.47215408
2.9976757 0.3324414 0.033745423
2.9911523 0.2575781 0.033590622
3.0045898 0.24017577 0.033723697
3.0382812 0.2241211 0.03408632
2.9658008 -0.20046875 0.033258323
2.9709961 -0.23746093 0.03334715
39.265507 -5.824453 0.4441291
43.453907 -7.5399413 0.49344152
2.982871 -0.65060544 0.03415821
2.9642382 -0.665625 0.033991527
2.9492188 -0.71953124 0.033964824
2.9794922 -0.7657617 0.03441946
20.908964 -6.907363 0.246374
2.9723241 -1.1465429 0.03564428
2.9516406 -1.159414 0.03548109
2.9315038 -1.2142578 0.03550085
2.9378514 -1.2380664 0.03566992
43.88625 -20.428047 0.5416062
33.731014 -16.207558 0.41870475
32.015743 -15.869883 0.39979163
32.00775 -16.111347 0.40092552
2.9332225 -1.6616211 0.03771864
2.9210742 -1.6785351 0.037693918
2.9152343 -1.6990429 0.03775301
2.9164062 -1.723789 0.03790365
28.170956 -16.88502 0.36746764
27.760254 -16.87123 0.36345443
27.544062 -16.972149 0.36197942
25.586601 -15.983438 0.33753777
25.220663 -15.9708 0.3339969
24.862305 -15.958437 0.33054298
24.621777 -16.018202 0.32863784
24.614492 -16.229277 0.32987815
24.607147 -16.441973 0.33111235
23.783106 -16.532558 0.3240741
23.458553 -16.521366 0.32102174
8.700762 -6.2079883 0.11958708
8.580313 -6.201855 0.11845182
8.346191 -6.189961 0.11625948
8.240332 -6.1901755 0.11531252
20.78787 -16.4292 0.29645252
19.985332 -16.401503 0.28926393
19.726387 -16.392578 0.28696725
18.973457 -16.366581 0.2803478
18.730137 -16.358202 0.2782332
18.49041 -16.349922 0.27615663
18.254257 -16.341778 0.27412474
18.021523 -16.33375 0.27212876
17.792149 -16.325819 0.27016857
17.566053 -16.318027 0.26825196
17.123339 -16.302753 0.264527
16.906523 -16.295254 0.26271772
4.482246 -4.482246 0.07092348
4.4256444 -4.4802732 0.07045801
4.2600975 -4.474492 0.06912542
4.23166 -4.611738 0.07002886
4.2297654 -4.666836 0.070469186
4.227871 -4.7226562 0.070919245
13.598066 -15.569746 0.23128332
13.085917 -15.55207 0.22740926
12.918984 -15.5463085 0.22615507
12.792207 -15.587343 0.22561055
12.772422 -16.160898 0.23046735
12.751738 -16.759922 0.23562455
8.688496 -11.566074 0.16185102
8.500977 -11.462246 0.15966627
8.277285 -11.30496 0.1567489
8.146641 -11.4178705 0.15693162
7.9318748 -11.410468 0.15548182
7.825957 -11.4068165 0.1547748
7.6169724 -11.39959 0.1533951
7.3068943 -11.383691 0.15134645
7.079746 -11.489707 0.15099618
7.004277 -11.524941 0.15089212
5.502422 -10.144082 0.12911688
5.4935937 -10.4312105 0.13190332
5.469043 -10.701133 0.13445929
5.385215 -10.698593 0.1340095
5.055312 -10.688535 0.13228865
4.893457 -10.683613 0.1314747
4.8132615 -10.681171 0.13107947
4.180586 -10.092871 0.122227915
4.107051 -10.08998 0.12188547
3.9613085 -10.084609 0.12122335
3.889238 -10.0824995 0.12091112
3.8175194 -10.080371 0.12059976
3.775625 -10.157461 0.12124387
3.7702343 -10.336738 0.12310648
3.764746 -10.521777 0.12503237
3.661621 -10.643555 0.12593584
3.5877929 -10.640722 0.12563711
3.5142968 -10.637891 0.12534712
3.2957616 -10.629434 0.12451254
3.0800781 -10.621113 0.1237301
2.9377344 -10.615624 0.1232366
2.8669922 -10.61289 0.12299814
2.7965233 -10.610175 0.12276514
2.7263086 -10.607461 0.12253896
2.4478905 -10.0333 0.11554933
2.3821483 -10.030723 0.11534982
2.264629 -10.0847845 0.115643136
2.2546875 -10.336855 0.11837149
2.245 -10.604453 0.12127599
2.2349412 -10.88625 0.1243403
2.2132616 -11.494941 0.13097341
2.2015233 -11.824297 0.13456869
2.189082 -12.17209 0.13837168
2.1000195 -12.559668 0.14247468
1.7039648 -12.545996 0.14166048
1.5873437 -12.250606 0.13821244
1.3918359 -11.884531 0.13387823
1.2949609 -11.676972 0.13144812
1.210957 -11.566914 0.13012113
1.1307812 -11.481015 0.12907702
0.9742383 -11.313242 0.12704535
0.90484375 -11.319492 0.12705179
0.7597461 -11.2391405 0.12603548
0.6169336 -11.160039 0.12505506
0.40611327 -11.0261135 0.123448655
0.33796874 -11.01291 0.12327482
0.20226562 -10.986582 0.12294233
1.953125e-05 -10.962578 0.12265432
-0.20228516 -10.9875 0.12295427
-0.26992187 -10.99584 0.12306337
-0.405625 -11.012558 0.12329618
-0.47679687 -11.093808 0.124237455
-0.61689454 -11.159199 0.12504567
-0.6876172 -11.192206 0.12545885
-0.7588281 -11.225449 0.12588072
-0.89904296 -11.247031 0.12623808
-1.0512109 -11.389043 0.12796651
-1.1288867 -11.461523 0.12885606
-1.2075976 -11.535 0.12976427
-1.2951367 -11.6785345 0.13146546
-1.5732031 -12.141542 0.13698
-1.6486523 -12.138945 0.13706353
-1.7242187 -12.136328 0.1371509
-1.7998828 -12.13373 0.13724355
-1.9514843 -12.128496 0.1374436
-2.0274804 -12.125859 0.13755228
-2.1035936 -12.123242 0.13766794
-2.179824 -12.120605 0.13778745
-2.2561913 -12.117969 0.13791105
-2.2743945 -11.812558 0.13459168
-2.3477733 -11.802988 0.1346467
-2.5463085 -11.339218 0.13002947
-2.6049805 -11.276367 0.12948717
-2.663164 -11.2139845 0.12895696
-2.7208788 -11.152148 0.12843771
-2.7841797 -11.11498 0.12820189
-2.9821093 -11.038964 0.12793596
-3.2205076 -10.855957 0.12669195
-3.289082 -10.842636 0.12677339
-3.6333592 -10.775859 0.12723504
-3.7833593 -10.781875 0.12784524
-3.9396484 -10.801132 0.12863542
-4.2087107 -10.910664 0.13084112
-4.817012 -11.43039 0.13878042
-5.097031 -11.691816 0.14270781
-5.4116797 -12.009082 0.14737539
-5.693105 -12.230702 0.15094152
-5.7832227 -12.227597 0.15133646
-5.8738084 -12.224472 0.15174143
-5.8879685 -11.697363 0.14652085
-5.8636913 -10.970195 0.1391736
-5.858008 -10.799628 0.13746153
-5.841699 -10.312051 0.13260175
-5.831582 -10.005859 0.12957777
-5.827246 -9.858828 0.12813707
-3.5063086 -5.849902 0.07630735
-3.5929687 -5.830957 0.07663042
-6.478359 -10.23043 0.13548101
-6.652207 -10.225137 0.1364824
-6.828672 -10.219766 0.13751855
-7.007832 -10.214335 0.13859376
-7.3489842 -10.03707 0.13918272
-7.343672 -9.901738 0.1379289
-7.3384376 -9.768827 0.13670275
-8.243418 -10.171249 0.14648207
-8.445801 -10.163418 0.14785162
-8.548437 -10.159472 0.14855482
-8.65207 -10.155469 0.14926893
-8.756699 -10.151425 0.14999586
-8.862363 -10.147344 0.15073739
-8.969062 -10.143223 0.15149054
-9.076836 -10.139062 0.15225561
-9.074726 -10.012422 0.1511886
-9.069707 -9.884277 0.15009153
-9.11373 -9.572441 0.14788061
-9.222207 -9.568144 0.14868341
-1.9528711 -1.5629687 0.027985992
-1.9498242 -1.5216601 0.027672747
-1.9548632 -1.5063672 0.027612858
-1.9740624 -1.4829102 0.027624873
-6.96125 -1.384668 0.079410955
-6.962422 -1.3405273 0.079330154
-6.9031835 1.5501562 -0.047493763
-6.8443356 1.5811328 -0.047155418
-9.865918 4.301035 -0.07224775
-9.689824 4.2952147 -0.071151845
-9.519004 4.2895703 -0.07008737
-9.353184 4.284082 -0.06906019
-9.192168 4.2787695 -0.06806387
-9.035723 4.2735744 -0.067097016
-8.182441 4.2453513 -0.061879616
-8.05293 4.2410545 -0.06109657
-7.803457 4.232793 -0.059593465
-7.6832614 4.228828 -0.058872774
-7.451328 4.2211328 -0.0574884
-7.339414 4.217422 -0.056823235
-7.230039 4.2138085 -0.05617624
-7.018594 4.206816 -0.054930095
-6.8163085 4.2000976 -0.053746358
-6.7183785 4.196836 -0.05317606
-6.5285935 4.190547 -0.05207645
-6.2581444 4.181582 -0.050526142
-6.171523 4.1786914 -0.050031945
-6.0865817 4.175879 -0.049549885
-1.8644335 1.4005859 -0.015653515
-1.8539844 1.4106054 -0.01563816
-1.8355273 1.4506836 -0.015705338
-1.8349999 1.4686524 -0.015777646
-1.8386523 1.4901757 -0.015887184
-5.0461717 4.1413083 -0.043820687
-4.980879 4.139121 -0.043473892
-4.729687 4.1307616 -0.042153854
-4.436133 4.1209764 -0.040645655
-4.3244724 4.117246 -0.040082015
-4.269785 4.11541 -0.03980911
-4.0070505 4.1066403 -0.038515855
-3.7131445 4.0968165 -0.037116032
-3.6661718 4.095254 -0.0368976
-3.6197655 4.0936913 -0.036683023
-3.5739257 4.092168 -0.036471594
-3.4394531 4.087656 -0.035861015
-3.1833398 4.0790625 -0.034733944
-3.1421874 4.0776954 -0.03455738
-3.1014452 4.076328 -0.03438385
-3.0611327 4.0749803 -0.034213256
-2.9424803 4.0709763 -0.033719156
-2.865254 4.0683985 -0.03340374
-2.7894726 4.06584 -0.03309883
-2.5699804 4.058457 -0.032247048
-2.4992774 4.056074 -0.03198181
-2.4643555 4.0548825 -0.031852815
-2.429707 4.0537305 -0.031725407
-2.36125 4.0514064 -0.031478137
-2.293789 4.0491405 -0.031239681
-2.2604687 4.0480075 -0.03112318
-2.2273827 4.046875 -0.031009253
-2.161914 4.0446873 -0.03078659
-2.1295507 4.043594 -0.030678386
-2.0973828 4.0425 -0.030572014
-2.0337305 4.040332 -0.030364761
-1.9732422 4.042949 -0.030200023
-1.8957226 4.0726366 -0.030156115
-1.8698046 4.082246 -0.03014143
-1.8438281 4.0916796 -0.030126704
-1.7917187 4.1099806 -0.030097198
-1.7656054 4.118867 -0.030082397
-1.7132031 4.136035 -0.03005268
-1.6869726 4.144492 -0.030037822
-1.6606835 4.1527147 -0.030022906
-1.634375 4.1607423 -0.030007992
-1.5110742 4.2231836 -0.030109938
-1.4521874 4.221172 -0.029966315
-1.4229492 4.2201757 -0.029896945
-1.3958789 4.2253904 -0.029872721
-1.3692968 4.2318554 -0.029857635
-1.3158984 4.2440233 -0.029827366
-1.2891797 4.249824 -0.029812183
-1.2624218 4.2554884 -0.02979702
-1.1820313 4.271406 -0.029751377
-1.1552539 4.276465 -0.029736174
-1.1284375 4.281289 -0.029720936
-1.1015625 4.2858787 -0.029705696
-1.0477929 4.2947264 -0.02967516
-0.80541015 4.3258395 -0.029537467
-0.7784375 4.3284373 -0.029522132
-0.7514453 4.330781 -0.029506836
-0.61667967 4.3406053 -0.029430216
-0.589707 4.341953 -0.029414883
-0.5358203 4.344336 -0.02938425
-0.42816406 4.3471484 -0.029323025
-0.40126953 4.347402 -0.029307708
-0.37439454 4.347539 -0.02929243
-0.34751952 4.3474803 -0.029277133
-0.26703125 4.346289 -0.029231356
-0.24021484 4.3456054 -0.029216098
-0.2134375 4.344668 -0.029200839
-0.18667968 4.3436522 -0.02918562
-0.07986328 4.3379297 -0.029124813
-0.053222656 4.3360353 -0.029109668
-0.026621094 4.334043 -0.029094504
0.0 4.331914 -0.02907936
0.053105466 4.3270507 -0.029049128
0.13253906 4.318574 -0.029003868
0.18533203 4.3122067 -0.028973809
0.21166015 4.3087497 -0.028958797
0.36896482 4.284707 -0.02886917
0.39505857 4.2801757 -0.028854312
0.4470703 4.270547 -0.028824633
0.62779295 4.232285 -0.028721618
0.65341794 4.2261915 -0.028706988
0.67898434 4.2199607 -0.028692398
0.7045117 4.213574 -0.028677844
0.7553906 4.200351 -0.028648814
0.7807812 4.193496 -0.028634338
0.88166016 4.164629 -0.028576793
0.9317773 4.1494336 -0.028548183
1.0091406 4.1362305 -0.028580626
1.0358202 4.135293 -0.028617285
1.0625976 4.134375 -0.028655147
1.0806445 4.100078 -0.028463172
1.1297852 4.082539 -0.028435096
1.1786133 4.0642576 -0.02840723
1.2029492 4.0549803 -0.028393306
1.227207 4.045566 -0.028379478
1.2995703 4.0164256 -0.028338127
1.3235742 4.0065036 -0.028324394
1.3474609 3.9963672 -0.028310718
1.3950781 3.9756835 -0.02828352
1.4893359 3.9326952 -0.028229637
1.5127149 3.921582 -0.028216265
1.5660937 3.9161327 -0.028312072
1.5936328 3.9151366 -0.028375626
1.649082 3.9131835 -0.028506279
1.7332617 3.9102342 -0.028712234
1.7900976 3.9082227 -0.028856277
1.8187109 3.9072266 -0.028930817
1.8763866 3.9051757 -0.029084472
1.9054687 3.9041405 -0.029162578
1.934707 3.9031248 -0.029243277
1.9936718 3.9010155 -0.029408969
2.023418 3.8999803 -0.029493961
2.14416 3.895703 -0.02985075
2.1748047 3.8946092 -0.029943733
2.23666 3.8924217 -0.030135497
2.26791 3.8913085 -0.030234909
2.330996 3.8890624 -0.030437622
2.362871 3.8879297 -0.030540999
2.459824 3.8844922 -0.030864391
2.525586 3.8821678 -0.031090526
2.5588477 3.8809764 -0.031205844
2.6261327 3.8785937 -0.031442776
2.6601562 3.8773828 -0.031565037
2.694453 3.8761523 -0.03168951
2.7638476 3.8736913 -0.031944085
2.8343945 3.8711717 -0.032207906
2.8700976 3.8699024 -0.032342795
3.0160155 3.8646874 -0.03290819
3.0533006 3.8633592 -0.03305563
3.1672266 3.8592968 -0.033514634
3.2059178 3.8579297 -0.03367235
3.2449412 3.8565428 -0.03383358
3.284375 3.855117 -0.03399704
3.3241992 3.853711 -0.034164086
3.364414 3.852246 -0.034334105
3.405 3.8508203 -0.034506626
3.4460351 3.849336 -0.034681626
3.5293553 3.8463671 -0.035043143
3.5716405 3.8448436 -0.03522787
3.614414 3.8433201 -0.03541666
3.6576562 3.8417578 -0.03560886
3.701328 3.8401952 -0.035804003
3.7455273 3.8386133 -0.036002673
3.7902148 3.8370116 -0.036205042
3.835371 3.8353906 -0.036411133
3.8810937 3.8337696 -0.036621075
3.927324 3.8321092 -0.036834907
3.9741015 3.8304296 -0.037052725
4.0214453 3.82875 -0.03727331
4.1178126 3.8252733 -0.037729092
4.1668944 3.8235157 -0.037963122
4.216621 3.8217382 -0.038202267
4.3179297 3.8181055 -0.03869236
4.3695703 3.8162303 -0.03894413
4.4748826 3.812461 -0.039463155
4.528613 3.8105273 -0.03972992
4.6383204 3.8066015 -0.040280074
4.867129 3.7983594 -0.041443978
4.926406 3.7962108 -0.04174963
4.986582 3.7940624 -0.0420615
5.172695 3.7873633 -0.04303692
5.23666 3.7850585 -0.04337469
5.5029297 3.7754686 -0.044798907
5.572285 3.7729688 -0.04517431
5.6428123 3.7704296 -0.045557898
5.714531 3.767832 -0.045949094
5.7875 3.7652147 -0.046349734
6.0926366 3.754199 -0.048040293
6.4210935 3.7423437 -0.04989124
6.507207 3.7392187 -0.050380304
6.8693748 3.7261326 -0.05246006
6.9646482 3.722695 -0.053013094
7.0619726 3.7191796 -0.05357807
7.1613865 3.715586 -0.054158535
7.3668356 3.708164 -0.055364646
7.4730077 3.704336 -0.05599148
7.6928124 3.696367 -0.057293758
7.806582 3.692246 -0.057970446
7.9231052 3.6880467 -0.058666762
8.042421 3.6837304 -0.059382323
8.164726 3.6792967 -0.060116023
3.0220702 1.3396094 -0.022190666
3.007539 1.3111328 -0.02202465
3.0039258 1.2876757 -0.021939563
3.0274608 1.2323437 -0.021942444
9.420273 3.633828 -0.06777897
9.579941 3.6280272 -0.06876646
9.913632 3.6159375 -0.0708379
10.088144 3.6096094 -0.07192619
10.2681055 3.6030858 -0.07305017
10.846132 3.5831053 -0.07667978
11.051855 3.575996 -0.077977106
11.484981 3.5610547 -0.080719605
11.713183 3.5531836 -0.0821688
11.949746 3.5450194 -0.083673
3.0244725 0.8570117 -0.021101836
2.997832 0.82960933 -0.020880394
2.9901562 0.76853514 -0.020724982
3.029082 0.71935546 -0.020899314
16.073067 3.4027147 -0.11028915
16.95371 3.3723242 -0.116038375
17.924805 3.1102734 -0.122126065
17.958652 2.8896093 -0.12210543
2.981289 0.330625 -0.020135785
2.973418 0.3113086 -0.020069065
2.9775586 0.25640625 -0.020062102
3.0089061 0.22195312 -0.020253219
18.131874 1.2257031 -0.12199644
18.138475 1.114375 -0.12199198
18.154413 0.78027344 -0.121980816
18.158281 0.6688281 -0.12197794
18.161446 0.5573828 -0.12197542
18.168007 0.22298828 -0.12196958
18.168457 -0.11144531 -0.12196723
18.165741 -0.33441406 -0.121967405
18.160566 -0.55732423 -0.12196893
3.0267382 -0.13007812 -0.020336589
2.957793 -0.18169922 -0.019892978
2.9537303 -0.21787108 -0.019881915
2.9567382 -0.23634765 -0.019911537
2.9679296 -0.2555664 -0.019997196
2.9891014 -0.2758789 -0.020150946
18.08662 -1.7813672 -0.1220033
18.076563 -1.8924414 -0.12200834
18.053457 -2.1142774 -0.12202011
18.041307 -2.2251756 -0.12202627
18.028223 -2.3359375 -0.12203304
18.014414 -2.4466405 -0.12204019
18.000254 -2.5573046 -0.12204756
17.969883 -2.7783594 -0.12206344
17.901562 -3.2194726 -0.12209955
17.863632 -3.4394727 -0.12211975
17.843925 -3.5493555 -0.12213026
2.9654295 -0.6467969 -0.02037443
2.940918 -0.679375 -0.020261936
2.9361913 -0.71634763 -0.020288315
17.610624 -4.641621 -0.122256145
16.898691 -4.6765037 -0.11770262
16.449316 -4.660996 -0.114769034
16.021776 -4.64623 -0.1119845
15.226054 -4.6187696 -0.10680891
14.855117 -4.6059766 -0.10440548
14.500488 -4.5937304 -0.10210869
14.161133 -4.5820312 -0.09991565
13.836035 -4.570801 -0.09781752
13.524277 -4.5600586 -0.09580946
12.395292 -4.521094 -0.088571735
12.139179 -4.512246 -0.086937696
2.9849412 -1.1304101 -0.021426678
2.9571874 -1.1407031 -0.021277636
2.9392772 -1.1545703 -0.021198386
2.9211524 -1.1890038 -0.021171665
2.9175 -1.208457 -0.02119852
2.921172 -1.2310351 -0.02127966
2.9350195 -1.258125 -0.021436444
9.499863 -4.421953 -0.07034258
9.3382225 -4.416621 -0.06934406
9.028281 -4.4064255 -0.06743988
8.456621 -4.387578 -0.06395437
8.322773 -4.3831444 -0.06314476
8.192285 -4.378867 -0.06235794
2.9626954 -1.6306444 -0.022701759
2.9212303 -1.6548437 -0.022537937
2.9091406 -1.6716796 -0.02252348
2.902832 -1.6918163 -0.022554398
2.900996 -1.7146679 -0.022621498
2.9083593 -1.743203 -0.02276207
7.148379 -4.344394 -0.056154232
6.6526756 -4.328047 -0.05327717
6.468242 -4.3219333 -0.052221697
6.0374413 -4.3076954 -0.049787216
5.9560156 -4.305 -0.04933262
5.7975388 -4.2997656 -0.048453595
5.72041 -4.297207 -0.04802944
5.644629 -4.294707 -0.047612876
5.284355 -4.282754 -0.045661315
5.14832 -4.2782617 -0.04493595
5.081914 -4.2760544 -0.044584904
4.88875 -4.269629 -0.043571852
4.826289 -4.267578 -0.043247756
4.5853515 -4.25957 -0.04201311
4.527246 -4.257656 -0.041719113
4.4699607 -4.255742 -0.0414316
4.4134374 -4.2538476 -0.04114889
4.3576756 -4.252012 -0.040870972
4.302656 -4.250195 -0.04059904
4.1948047 -4.2466016 -0.04006998
4.1419334 -4.2448435 -0.039813306
3.9872265 -4.2396874 -0.039069116
3.7896092 -4.233105 -0.03814001
3.7416797 -4.2315235 -0.03791849
3.6942773 -4.2299414 -0.03770033
3.6011133 -4.2268357 -0.037275903
3.4651365 -4.222305 -0.036666982
3.3335352 -4.2179294 -0.036089666
3.1230078 -4.2108984 -0.035192452
3.0821483 -4.2095118 -0.035022546
3.04166 -4.2081637 -0.03485563
2.9618359 -4.2055078 -0.034530047
2.9225 -4.20418 -0.03437126
2.8448436 -4.201582 -0.034061983
2.8065429 -4.200293 -0.03391138
2.6936524 -4.196523 -0.033474214
2.5835547 -4.192832 -0.033060282
2.4761133 -4.189238 -0.03266674
2.4408593 -4.188047 -0.032540206
2.3025196 -4.1833982 -0.032055948
2.2014062 -4.18 -0.03171339
2.1023633 -4.1766796 -0.031389523
2.0053124 -4.173418 -0.031081943
1.9733789 -4.172324 -0.030982798
1.9100976 -4.1702147 -0.030790996
1.8787304 -4.1691403 -0.030697249
1.6944921 -4.162949 -0.03017189
1.664375 -4.161914 -0.030089969
1.4870117 -4.155937 -0.029630374
1.3716406 -4.152031 -0.029353809
1.3431445 -4.151074 -0.029288024
1.3147656 -4.150117 -0.02922365
1.2865039 -4.1491404 -0.029160708
1.146914 -4.144414 -0.0288665
1.1193359 -4.1434765 -0.028811684
1.0918359 -4.1425586 -0.028758202
1.0644531 -4.141621 -0.028705997
0.80908203 -4.202129 -0.028726634
0.75822264 -4.215996 -0.028755473
0.6301172 -4.247949 -0.028828144
0.55265623 -4.2652736 -0.02887209
0.5267578 -4.270742 -0.028886795
0.47716796 -4.302832 -0.029061526
0.4503711 -4.3019333 -0.029036654
0.42361328 -4.300996 -0.02901247
0.37021485 -4.2991796 -0.02896696
0.34410155 -4.304863 -0.028990477
0.31785154 -4.3091016 -0.029005375
0.29158202 -4.3131638 -0.029020289
0.26521483 -4.317148 -0.029035281
0.23886718 -4.3209763 -0.029050253
0.106484376 -4.3374023 -0.029125461
0.07990234 -4.3402734 -0.029140549
0.05330078 -4.3428907 -0.029155655
-0.10691406 -4.3554296 -0.02924675
-0.13371094 -4.356953 -0.02926195
-0.16054687 -4.358457 -0.02927721
-0.26798826 -4.362207 -0.02933832
-0.2949414 -4.362793 -0.029353619
-0.32185546 -4.363164 -0.029368933
-0.37576172 -4.3633204 -0.029399604
-0.45673826 -4.3625975 -0.029445685
-0.48375 -4.361992 -0.02946106
-0.537793 -4.360254 -0.029491805
-0.5648242 -4.3591404 -0.029507179
-0.6459961 -4.3548827 -0.029553393
-0.6730469 -4.3530273 -0.029568786
-0.72716796 -4.3489647 -0.029599609
-0.75423825 -4.3466797 -0.02961502
-0.78128904 -4.344199 -0.029630413
-0.8083594 -4.34166 -0.029645843
-0.9165625 -4.3293943 -0.029707432
-0.97064453 -4.322344 -0.029738253
-1.0246484 -4.314551 -0.029769039
-1.0516406 -4.310449 -0.029784432
-1.0786328 -4.3060937 -0.029799804
-1.105625 -4.30166 -0.029815197
-1.1595117 -4.292207 -0.029845886
-1.2133203 -4.281992 -0.029876575
-1.2939453 -4.2655272 -0.029922523
-1.3207617 -4.2596874 -0.02993782
-1.4010937 -4.2411327 -0.029983634
-1.4286523 -4.237109 -0.03001646
-1.4573241 -4.2360935 -0.030072078
-1.4860938 -4.2350974 -0.030129012
-1.5149804 -4.2340817 -0.030187244
-1.5344336 -4.206816 -0.030059699
-1.5875195 -4.191875 -0.030089987
-1.6140039 -4.1841407 -0.030105114
-1.6404883 -4.176289 -0.03012022
-1.666914 -4.168203 -0.030135326
-1.7196679 -4.151621 -0.030165404
-1.7459375 -4.1429687 -0.030180434
-1.7984179 -4.1253123 -0.030210398
-1.9028906 -4.0880466 -0.03027006
-1.9807421 -4.0583005 -0.030314501
-2.0923047 -4.0326757 -0.030498257
-2.1232226 -4.0316014 -0.0305875
-2.248867 -4.0271873 -0.030963344
-2.2807422 -4.026074 -0.03106161
-2.3128514 -4.0249414 -0.031162128
-2.443379 -4.020371 -0.03158125
-2.4765625 -4.019199 -0.03169149
-2.611699 -4.0144334 -0.032149658
-2.715664 -4.010801 -0.032515086
-2.7508593 -4.009531 -0.032641485
-2.786328 -4.008301 -0.032770023
-2.8220897 -4.007031 -0.03290018
-2.858125 -4.005781 -0.0330332
-2.894453 -4.0044923 -0.03316845
-2.9310937 -4.003203 -0.033306044
-3.0428123 -3.9992383 -0.03373352
-3.1189454 -3.9965625 -0.034031678
-3.235742 -3.992461 -0.034497567
-3.275371 -3.9910545 -0.034658432
-3.3153906 -3.9896288 -0.034821987
-3.396582 -3.9867578 -0.0351589
-3.437754 -3.9853125 -0.035331078
-3.4793553 -3.983828 -0.03550623
-3.5638084 -3.9808593 -0.03586752
-3.6499803 -3.9778125 -0.036240157
-3.69375 -3.97625 -0.036432303
-3.8736327 -3.9698827 -0.03723381
-3.9198632 -3.9682422 -0.03744276
-3.9666014 -3.966582 -0.037656076
-4.0617185 -3.9632225 -0.03809553
-4.110117 -3.9615037 -0.038319796
-4.159082 -3.9597654 -0.03855011
-4.361035 -3.9525976 -0.039510537
-4.413125 -3.950742 -0.03976185
-4.4658594 -3.9488866 -0.040017795
-4.5192966 -3.9469922 -0.04027849
-4.573437 -3.9450586 -0.040544834
-4.6283007 -3.9431055 -0.040816136
-4.797383 -3.9370897 -0.041660402
-1.9399608 -1.5526367 -0.016680278
-1.9379687 -1.5316211 -0.01658186
-1.9548242 -1.4873047 -0.016489048
-1.9784961 -1.4673437 -0.016535567
-2.016172 -1.4572656 -0.016699696
-5.4838085 -3.9126756 -0.045221746
-5.5521483 -3.9102538 -0.04558672
-5.6921873 -3.905254 -0.046339396
-5.836914 -3.9000976 -0.047124937
-5.9111524 -3.8974414 -0.047530707
-5.986699 -3.8947656 -0.047943514
-6.063555 -3.8920312 -0.04836786
-6.2214255 -3.8863866 -0.049242914
-6.3025193 -3.883496 -0.049695052
-6.73166 -3.8681836 -0.052118454
-7.106601 -3.8548045 -0.054272518
-7.3059764 -3.8476758 -0.05542965
-7.514121 -3.8402343 -0.0566473
-7.621621 -3.8363867 -0.057278898
-7.731601 -3.8324609 -0.057927836
-8.076972 -3.820117 -0.05997873
-8.447851 -3.8068554 -0.062202528
-9.279375 -3.7770898 -0.06725521
-9.587578 -3.7660546 -0.06914793
-9.913652 -3.754375 -0.07116159
-6.9571095 -1.4282812 -0.047676142
-6.9625387 -1.2963085 -0.04754162
-5.5011325 0.03376953 -0.13543262
-5.4995704 0.13501953 -0.13543238
-5.494531 0.2699414 -0.13543035
-5.4885154 0.37103516 -0.13542756
-5.486074 0.404707 -0.13542639
-5.4775586 0.50560546 -0.13542216
-5.4742575 0.5391797 -0.13542052
-5.4708204 0.5727539 -0.13541876
-5.450215 0.74025387 -0.13540809
-5.4405274 0.8070312 -0.135403
-5.435371 0.8403906 -0.13540028
-5.424414 0.90697265 -0.13539447
-5.406406 1.0066016 -0.13538486
-5.4 1.0397265 -0.13538142
-5.3933787 1.0728124 -0.13537784
-5.3794923 1.1388476 -0.13537036
-5.364785 1.204707 -0.13536242
-5.33291 1.3358399 -0.1353451
-5.3157616 1.4010742 -0.13533574
-5.2693357 1.5632031 -0.13531037
-5.2492967 1.6275976 -0.13529937
-5.2390037 1.659707 -0.1352937
-5.228457 1.6917382 -0.13528793
-5.1729493 1.8509179 -0.13525735
-5.161269 1.8825195 -0.13525088
-5.125 1.976953 -0.13523085
-5.11248 2.0082421 -0.13522393
-5.073867 2.1016796 -0.13520254
-5.047109 2.163535 -0.13518772
-5.019629 2.2250586 -0.13517247
-4.9325585 2.4074414 -0.1351241
-4.90207 2.4675 -0.13510711
-4.886484 2.4973438 -0.13509844
-4.870742 2.527129 -0.1350897
-4.8548436 2.5568163 -0.13508081
-4.7383204 2.761582 -0.13501582
-4.720957 2.79041 -0.13500611
-4.6677537 2.8761914 -0.13497639
-4.649648 2.9045508 -0.13496627
-4.6129684 2.960957 -0.13494577
-4.594336 2.9889452 -0.13493533
-4.5566015 3.0446289 -0.13491422
-1.9675 1.3498633 -0.058740616
-1.9140234 1.3480078 -0.05763378
-1.8880273 1.3471093 -0.057098866
-1.8380663 1.3458008 -0.056082666
-1.8042188 1.3553516 -0.055553418
-1.8015429 1.3882421 -0.055991326
-1.8000976 1.4226757 -0.056484982
-1.798711 1.4577734 -0.0569981
-1.7980859 1.4756445 -0.057264592
-1.7974609 1.4936913 -0.057535455
-1.7968359 1.5118945 -0.05781101
-1.7962109 1.530293 -0.058091793
-1.7955663 1.5488477 -0.05837732
-4.097578 3.6232226 -0.13465674
-4.0058985 3.721289 -0.1346052
-3.9355469 3.793281 -0.13456564
-3.8397264 3.8871484 -0.13451171
-3.8154492 3.9102538 -0.13449806
-3.7909765 3.933203 -0.13448428
-3.74166 3.9785936 -0.1344565
-3.7167773 4.001035 -0.13444248
-3.6917577 4.0233593 -0.1344284
-3.6413672 4.0675 -0.1344
-3.609414 4.081953 -0.13414314
-3.5636327 4.080371 -0.13336958
-3.473672 4.0772657 -0.13186544
-3.429414 4.0757422 -0.13113229
-3.3856835 4.0742188 -0.13041332
-3.2995899 4.07125 -0.12901185
-3.215332 4.06834 -0.12766002
-3.0921483 4.0641017 -0.12571862
-3.051914 4.0627146 -0.12509388
-2.9726171 4.0599804 -0.123877235
-2.9335546 4.058633 -0.12328487
-2.818535 4.0546484 -0.12156747
-2.7808983 4.0533595 -0.12101467
-2.7436132 4.05207 -0.12047136
-2.7066405 4.050801 -0.11993736
-2.6699998 4.049531 -0.11941251
-2.5619726 4.0458007 -0.11789167
-2.4914453 4.0433593 -0.11692133
-2.456621 4.0421677 -0.11644806
-2.3877733 4.039785 -0.115527324
-2.3537695 4.0386133 -0.115077935
-2.2865233 4.0362887 -0.11420337
-2.253281 4.0351562 -0.11377798
-2.2202735 4.0340037 -0.11335983
-2.1875196 4.032871 -0.11294895
-2.155 4.031758 -0.11254472
-2.1227148 4.0306444 -0.112147555
-1.9957616 4.0262694 -0.110629305
-1.9335546 4.024121 -0.109909855
-1.8417187 4.0209374 -0.10887922
-1.7814062 4.018867 -0.10822267
-1.7515429 4.017832 -0.10790363
-1.6337695 4.0137696 -0.106685005
-1.6047266 4.0127735 -0.10639463
-1.5471289 4.0107813 -0.10583038
-1.4900976 4.0088086 -0.10528825
-1.4056835 4.0058985 -0.1045142
-1.3777734 4.0049415 -0.10426678
-1.3500586 4.0039845 -0.10402393
-1.2949219 4.0020704 -0.10355415
-1.2131641 3.9992578 -0.10288553
-1.1861523 3.9983203 -0.10267292
-1.1592187 3.9974022 -0.10246448
-1.0526367 3.9937108 -0.1016769
-0.99992186 3.9918945 -0.10131029
-0.8697461 3.9874022 -0.1004715
-0.8439648 3.9865234 -0.10031692
-0.8182617 3.985625 -0.10016659
-0.7926367 3.984746 -0.10001991
-0.7670703 3.9838672 -0.09987793
-0.71617186 3.9821093 -0.099605806
-0.6908203 3.9812305 -0.09947613
-0.66552734 3.9803514 -0.09935003
-0.6403125 3.9794922 -0.099228956
-0.61515623 3.9786131 -0.09911089
-0.59005857 3.9777539 -0.098997764
-0.56501955 3.9768944 -0.098888144
-0.4901953 3.9742968 -0.09858242
-0.46535155 3.9734373 -0.09848892
-0.26814452 3.9666405 -0.097875215
-0.17035156 3.9632616 -0.09765989
-0.09724609 3.960742 -0.097536735
-0.07292969 3.9599023 -0.09750309
-0.04859375 3.9590623 -0.09747311
0.048535157 3.9557226 -0.09739053
0.07279297 3.9548826 -0.097379416
0.09705078 3.954043 -0.09737104
0.12132812 3.953203 -0.09736729
0.16982421 3.9515233 -0.09737074
0.21833985 3.9498632 -0.097387925
0.266875 3.9481835 -0.097419836
0.31546873 3.9465039 -0.097466886
0.364082 3.9448242 -0.09752829
0.38843748 3.9439843 -0.097564526
0.4128125 3.9431446 -0.09760446
0.4371875 3.9423046 -0.09764811
0.46158203 3.9414647 -0.09769554
0.5104687 3.9397655 -0.097802006
0.58400387 3.9372265 -0.09798925
0.60861325 3.9363866 -0.098059215
0.63322264 3.9355469 -0.09813303
0.65787107 3.9346874 -0.09821014
0.756914 3.9312694 -0.09855966
0.8316992 3.9286914 -0.09886198
0.90697265 3.9260936 -0.0991995
0.93216795 3.9252148 -0.09932089
0.95742184 3.9243553 -0.09944534
1.0591601 3.9208398 -0.09998527
1.1104687 3.9190624 -0.10027981
1.13625 3.9181836 -0.100433424
1.1620898 3.917285 -0.10059139
1.2663085 3.9136913 -0.101267144
1.3454297 3.9109569 -0.101820335
1.3720117 3.910039 -0.10201282
1.4793555 3.9063475 -0.10283348
1.5064648 3.90541 -0.10305002
1.5610547 3.9035156 -0.103497654
1.6160938 3.901621 -0.103965566
1.7560155 3.8967967 -0.1052234
1.784414 3.8958201 -0.1054907
1.8704883 3.892832 -0.10632469
1.8994726 3.891836 -0.10661398
1.9286327 3.8908398 -0.106908396
1.9874609 3.8888085 -0.10751438
2.0171094 3.8877733 -0.10782671
2.0469337 3.8867576 -0.10814388
2.1375196 3.8836327 -0.109133966
2.1680663 3.8825781 -0.10947569
2.198828 3.8815038 -0.10982433
2.2297852 3.880449 -0.11017933
2.2609375 3.879375 -0.11054039
2.2923048 3.878281 -0.11090858
2.355664 3.8760936 -0.1116641
2.3876758 3.875 -0.112052724
2.4199219 3.8738866 -0.1124472
2.5180078 3.8704882 -0.11367502
2.5846288 3.868203 -0.114530884
2.7907617 3.8610742 -0.117283955
2.8261132 3.8598633 -0.11777153
2.8617382 3.8586328 -0.11826771
2.9704883 3.8548827 -0.119808726
3.1200194 3.8497264 -0.12199222
3.158281 3.8483984 -0.12256225
3.235879 3.8457227 -0.123732105
3.2752147 3.844375 -0.12433294
3.4365819 3.838789 -0.12684307
3.4779491 3.8373632 -0.12749813
3.5197656 3.835918 -0.12816544
3.604707 3.8329883 -0.12953629
3.6712694 3.8090038 -0.1302386
3.7169726 3.7628906 -0.13021229
3.7621288 3.71625 -0.13018632
3.806699 3.669121 -0.13016066
3.8287694 3.645293 -0.13014796
3.8724804 3.5973632 -0.1301228
3.8941014 3.5731835 -0.13011034
3.936914 3.5244725 -0.13008569
3.9580858 3.4999218 -0.13007347
4.020742 3.4255273 -0.13003738
4.081992 3.350039 -0.13000205
4.1021094 3.3246288 -0.12999047
4.122051 3.2991016 -0.12997895
4.1614842 3.2476757 -0.1299562
4.2003126 3.1958203 -0.12993379
4.2194724 3.169707 -0.12992272
4.2945895 3.0641992 -0.12987934
4.3491797 2.9838867 -0.12984778
4.36707 2.9569335 -0.12983742
4.3848047 2.9298632 -0.12982717
4.402324 2.9026368 -0.12981704
4.4708786 2.792871 -0.12977736
4.4875975 2.7651758 -0.12976767
4.520508 2.7095118 -0.12974858
4.599902 2.5686524 -0.12970255
4.6304297 2.5116796 -0.12968482
4.6749415 2.425547 -0.12965897
4.7037497 2.3676953 -0.1296422
4.7592382 2.2509766 -0.12960993
4.7726755 2.2216015 -0.12960209
4.7990036 2.1625977 -0.12958673
4.8246093 2.1032813 -0.12957181
4.8371873 2.0735548 -0.12956446
4.849531 2.043711 -0.12955724
4.8617187 2.0138085 -0.12955011
4.885527 1.953789 -0.12953621
4.897187 1.9236718 -0.12952939
4.9199023 1.8632226 -0.12951608
4.9526367 1.7720898 -0.12949689
4.983711 1.6804101 -0.12947865
4.9936914 1.649707 -0.12947278
5.003496 1.6189648 -0.129467
5.0131054 1.588164 -0.12946135
5.0225782 1.5573242 -0.12945576
5.0318165 1.5264062 -0.12945032
5.0833983 1.3398438 -0.1294198
5.114023 1.2145116 -0.12940158
5.121172 1.1830859 -0.12939732
5.1662107 0.9618945 -0.12937032
5.177344 0.8983789 -0.12936357
5.2103124 0.6751172 -0.12934342
5.2142577 0.6431445 -0.12934098
5.218027 0.61111325 -0.12933864
5.221621 0.579082 -0.12933639
5.2249804 0.54701173 -0.12933429
5.228125 0.51492184 -0.12933229
5.238945 0.3864453 -0.12932533
5.241113 0.35431638 -0.12932388
5.243164 0.3221289 -0.12932253
5.2449803 0.28996092 -0.12932129
5.2480664 0.22554687 -0.12931913
5.2512302 0.12892579 -0.12931672
5.2518945 0.096699215 -0.12931614
5.252324 0.06447265 -0.12931569
5.252617 0.032246094 -0.12931532
5.2527146 1.953125e-05 -0.12931506
5.252617 -0.03220703 -0.1293149
5.2502537 -0.16111328 -0.12931547
5.246504 -0.25773436 -0.12931697
5.244824 -0.28990233 -0.12931775
5.2429686 -0.32208985 -0.12931858
5.240957 -0.3542578 -0.12931953
5.233691 -0.45066404 -0.12932305
5.2308593 -0.48277342 -0.12932447
5.221289 -0.5790234 -0.12932931
5.2139454 -0.6430664 -0.1293331
5.2058396 -0.70703125 -0.12933731
5.187324 -0.83464843 -0.12934701
5.182207 -0.86648434 -0.12934974
5.1769333 -0.8982617 -0.12935255
5.1714063 -0.93003905 -0.12935549
5.147539 -1.0567774 -0.12936826
5.1276364 -1.1514453 -0.12937899
5.120664 -1.1829101 -0.12938276
5.1134176 -1.2143555 -0.1293867
5.0984764 -1.2770898 -0.1293948
5.0907226 -1.3083789 -0.12939902
5.0662694 -1.4020116 -0.12941232
5.0577345 -1.433125 -0.129417
5.0490623 -1.4641796 -0.12942173
5.031074 -1.5261328 -0.12943156
4.99291 -1.6494336 -0.1294525
4.98291 -1.6801171 -0.12945801
4.9623632 -1.741289 -0.1294693
4.9517775 -1.7717577 -0.12947512
4.941074 -1.802207 -0.12948105
4.930156 -1.8325781 -0.12948705
4.9077344 -1.8931054 -0.12949942
4.8962693 -1.9233007 -0.12950574
4.884629 -1.9533983 -0.12951219
4.860781 -2.0133789 -0.12952538
4.810918 -2.132539 -0.129553
